474146.7571	2561891.907	-15.2
457473.6544	2540832.07	-27.7
456603.6393	2543759.599	-20
455585.3427	2541786.185	-20
455796.9223	2543208.56	-18.1
462484.8685	2544402.569	-27
464303.5517	2544911.998	-27
464100.6286	2541658.062	-30
456363.4663	2540861.598	-25.1
455241.707	2541102.057	-20
462761.2535	2547643.14	-24
451929.2244	2538757.29	-20
451565.0402	2537447.453	-21.5
450962.1514	2539689.309	-10
450609.2427	2538115.937	-10
451316.5711	2541751.514	-10
448613.478	2536880.114	-10
452046.1733	2535625.009	-22.7
454386.3131	2542215.705	-17.7
458563.0796	2535443.03	-33
458907.519	2536432.905	-33
457699.7837	2537479.765	-32
457127.4728	2537062.391	-32
458939.0106	2539033.718	-31
460536.179	2538528.772	-31
465283.7132	2538846.482	-30
457087.7885	2535982.089	-33
458505.2333	2532157.163	-34
456431.9724	2532874.486	-35
454562.0581	2532142.15	-34
453877.2569	2531762.126	-34
458779.1576	2538586.177	-31
451917.7389	2530788.115	-34
451084.6468	2531785.56	-33
454616.6605	2528454.04	-33
455436.2917	2528135.389	-34
456331.1595	2531026.165	-35
457524.5092	2549060.063	-17
457550.6439	2551400.045	-16
461260.9132	2552886.785	-17.1
466698.9403	2553722.237	-20
465584.2576	2552444.058	-20
462023.0567	2549986.127	-20
460265.5569	2549358.235	-20
461932.7524	2546110.01	-25
465260.7117	2545390.452	-27
462495.2249	2551563.414	-19
461779.9681	2553159.512	-17
459304.4784	2552876.162	-16.1
458818.6469	2549095.983	-19
459447.3014	2544784.025	-26
457923.1746	2543244	-26.4
466699.1953	2546145.935	-27.1
465228.6925	2543145.186	-29.2
467507.8059	2542191.438	-29.3
461026.1455	2540770.665	-30
458511.3524	2542432.382	-27.6
457944.5149	2546400.348	-20
457092.9514	2545454.09	-20
458799.7326	2548716.942	-20
474574.135	2540504.468	-31
475495.6405	2548945.914	-28
480360.1983	2548314.23	-30
482466.8014	2545716.018	-31
480405.6411	2545758.091	-31
478430.9435	2546551.336	-30
474464.8891	2545147.755	-28
482456.3504	2540359.936	-32
480406.9344	2540615.434	-31
486482.9433	2540703.618	-31
484412.8603	2539867.654	-32
483807.6326	2544361.163	-31
488211.8239	2545450.639	-30
483610.2888	2542358.687	-30
493687.0581	2541659.604	-33
494446.9509	2548087.296	-31
491371.3755	2547320.727	-31
498603.6754	2546867.517	-33
498438.1557	2548519.118	-33
488311.4546	2552111.547	-30
484518.7106	2548541.738	-30.5
494603.5313	2555918.374	-29
521339.0427	2544405.914	-48
519372.8703	2548124.057	-37
513619.3137	2545609.094	-40
505415.7505	2548427.46	-36
512462.4453	2550355.304	-40
507463.6411	2549930.362	-37
510413.0248	2551855.768	-37
505366.0447	2551023.044	-34
502396.437	2553097.348	-32
499299.9911	2551674.2	-31
501336.1703	2549684.72	-34
500498.3597	2554378.267	-30
507380.8994	2558533.074	-30
503735.1031	2557456.576	-30
474590.1424	2551511.819	-27
480636.2407	2554459.429	-27
477565.0744	2554843.18	-27
476418.3231	2551129.37	-27
478327.3476	2552628.524	-27
477091.4384	2557571.295	-24
475334.5456	2556375.088	-23.5
469323.946	2554788.849	-20
468475.0756	2554553.447	-20
472692.9631	2557406.957	-20
477319.2406	2560656.299	-20
468426.4913	2551544.538	-23
466577.2865	2553324.658	-20
465324.7472	2549387.914	-23
466392.7747	2547145.592	-26
466498.7144	2545432.501	-27.7
469134.1829	2545888.009	-28
468781.8131	2553557.066	-21
467866.4755	2549648.406	-24.4
464852.6884	2553997.943	-18.3
463973.3123	2551264.711	-20
466142.3532	2552904.006	-20
466084.4251	2550146.688	-23.2
461860.7391	2555961.973	-15
464058.9486	2557748.465	-15
461463.4134	2557860.34	-14.1
460511.2058	2557243.55	-14
462197.7362	2554268.003	-17
461544.8578	2553986.382	-17
464256.5202	2556278.868	-16.1
471151.3495	2549888.353	-26.4
471634.8739	2547663.36	-27.7
527508.8229	2557872.071	-43
525621.769	2560678.479	-43
523490.5215	2558477.234	-43
521115.0613	2559602.597	-35
525440.1193	2555727.196	-46
515149.2142	2556191.94	-38
513406.6636	2555821.355	-34
512506.0634	2554226.31	-38
514914.6711	2559169.435	-31
511490.3796	2559364.045	-31
505141.4061	2554595.996	-31
507628.5378	2553569.351	-31
502399.2908	2551683.478	-29
498934.4069	2560658.927	-27
495999.8019	2558329.946	-28
500164.9827	2564203.188	-25
500920.5261	2559407.217	-24
494950.1026	2560554.337	-26.1
490703.89	2559825.853	-27
487559.7378	2559322.19	-27
486499.7189	2564833.254	-24
486467.939	2563370.759	-25.3
489233.2363	2563309.215	-26
495400.9867	2573063.766	-20
498444.669	2574420.263	-20
492052.4429	2571852.989	-20
498407.6513	2569769.148	-23
496616.6618	2565408.222	-24.7
497726.3947	2573998.723	-20
488934.3407	2573431.494	-17.2
489404.587	2567067.158	-23
487430.6958	2566027.796	-23.4
487499.1662	2575026.933	-15
496628.0094	2572479.081	-21
452467.5506	2543528.658	-10
451509.5841	2543036.298	-10
451922.7724	2544067.969	-5
451031.2117	2542985.144	-5
450813.9244	2542195.293	-5
452597.2402	2544424.215	-5
456034.1857	2545109.461	-14
463201.3331	2550737.857	-20
461476.2514	2549622.237	-20
465018.1322	2552084.038	-20
459726.6227	2552403.008	-17
458042.8083	2551901.67	-15.9
500428.2935	2574582.683	-20
502753.2001	2575228.557	-20
504651.9517	2575677.016	-20
507378.5694	2575506.834	-20
509896.1224	2578631.028	-20
503190.271	2580499.07	-17
507428.9197	2572186.504	-25
501572.786	2572329.665	-22
498991.6706	2571354.594	-22.5
499649.2876	2577138.831	-17
499685.8741	2580630.491	-16.5
492800.6415	2584215.707	-10
495575.9599	2585984.481	-10
489299.7647	2582063.936	-10
485863.3717	2578975.215	-10
484608.7115	2577803.792	-10
487495.3979	2580554.882	-10
482707.3004	2575368.31	-10
482048.6244	2574235.95	-9.7
483173.6768	2576060.067	-10
510990.6907	2567793.213	-29
512209.8154	2566239.404	-28
508580.3898	2565986.529	-28
506216.9048	2567355.648	-27
510992.529	2565302.967	-28
512883.5399	2561799.699	-30.3
512207.6538	2568874.589	-29
501980.2494	2570733.009	-23
505468.9219	2558786.229	-29
503333.3666	2561457.651	-25.7
505876.3424	2563924.953	-26.1
498413.3072	2567698.954	-23.1
500252.2279	2570110.066	-23
494809.453	2570558.953	-22.1
497206.798	2563258.862	-24.7
506825.599	2576546.186	-20
483392.4602	2560335.586	-26
483877.9788	2558606.385	-27
485007.8579	2557624.929	-27
482457.7472	2561243.155	-25.1
479794.1187	2561075.237	-27
486996.1331	2562516.568	-25.9
480420.3828	2564790.009	-20
479162.831	2562709.917	-20
478674.4871	2561985.932	-20
481473.159	2566237.038	-20
477914.2431	2561324.629	-20
480777.8847	2559771.183	-24.7
485040.3339	2562306.609	-25.3
459520.2541	2560709.62	-11.2
459996.4659	2562223.59	-10
457053.7409	2561012.976	-10
454930.2561	2558878.107	-10
454345.6829	2557002.28	-10
462312.1173	2562546.963	-10
457678.9798	2561291.183	-10
456717.6222	2560651.602	-10
461716.7708	2555572.415	-15.2
459086.0405	2560770.755	-11.1
458321.8181	2557623.779	-13
457644.1804	2555029.996	-14.3
456397.2773	2553795.026	-15
454595.2249	2557837.766	-10
456149.7468	2562308.944	-5
458724.3481	2563724.624	-5
459602.2773	2564025.271	-5
454535.4561	2560310.993	-5
453639.6606	2558284.614	-5
453588.5005	2557507.379	-5
453647.5166	2556887.916	-5
457187.4405	2563043.796	-5
459114.3185	2563776.254	-5
459426.4985	2562102.03	-10
455679.3892	2559820.035	-10
458696.6039	2558981.291	-12
461396.2238	2562442.017	-10
455305.423	2561372.226	-5
458669.7936	2561848.837	-10
459076.8785	2554497.714	-15.1
459229.3297	2556763.577	-14
461059.5026	2551909.933	-17.7
459011.3525	2550595.313	-17.5
463788.988	2562058.837	-10
464768.7913	2562167.17	-10
462831.9467	2562290.454	-10
460711.8735	2562220.783	-10
467111.2848	2563662.309	-11
467974.9772	2564221.729	-10
465416.9636	2563016.3	-10
469353.813	2565110.585	-10
471428.8764	2565729.779	-10
473856.002	2566189.117	-10
474280.8539	2566997.604	-10
472525.5275	2566178.556	-10
472772.5465	2569268.16	-7.5
471295.4728	2568662.203	-8
470536.9526	2570129.798	-5
473116.9323	2570654.587	-5
473730.3773	2570519.094	-5
474949.5944	2570011.029	-5
471898.7715	2567794.996	-8.7
469497.5359	2569175.308	-7
469030.332	2569373.915	-5
467501.7544	2568003.171	-5
468497.4752	2568925.992	-5
470368.945	2569412.297	-7
470301.0955	2565580.514	-10
470218.1567	2567960.277	-8.5
479705.3586	2567533.223	-10
480700.9219	2568902.202	-10
476039.918	2566252.694	-10
456712.9924	2561844.585	-8
458470.5211	2562949.022	-7.7
459671.1581	2563633.522	-6
459111.0982	2564639.072	-3.1
457120.4691	2563727.603	-3
470237.6361	2567354.841	-9
468533.094	2566449.197	-8.9
467655.0412	2565714.535	-9.1
469657.9215	2568313.913	-7.9
463548.1032	2560474.576	-13
468730.3554	2562267.934	-12.5
464094.0366	2559485.05	-14
468507.9725	2560805.866	-14
461525.3807	2560453.3	-12
461284.4209	2561508.01	-11
465477.7605	2557136.461	-16
472474.394	2564329.186	-11
467262.2233	2559464.594	-15.7
465316.6223	2561221.397	-13.3
462735.1524	2561846.895	-11.4
463104.9315	2558644.194	-14
470895.3813	2560432.093	-15.2
472974.5641	2558003.815	-19.4
467309.6652	2564431.852	-9
465107.0301	2560167.803	-14.1
462277.1177	2559599.921	-13.1
462710.3755	2560357.774	-12.7
460123.5966	2560838.799	-11.1
459901.1565	2559677.262	-12.1
474730.2883	2568649.276	-6
479548.868	2565838.023	-14
475786.0107	2564842.29	-11.5
473112.8175	2567840.467	-8.8
475795.8561	2568650.14	-6.1
477598.0918	2566971.329	-9
475476.8757	2562057.124	-16
477585.548	2564320.068	-14.2
473087.4714	2561860.29	-14.3
473353.4584	2563440.929	-12
476630.1494	2560130.912	-20
473045.9304	2568617.536	-8.1
471261.8008	2567956.801	-8.4
477642.0388	2574020.105	-2
480508.3905	2576419.384	-7
481815.4086	2578241.297	-7
488465.807	2570101.579	-20
490326.481	2575843.014	-16
486137.7919	2574180.884	-15
483737.9437	2572783.159	-14
482738.936	2572178.189	-13
482347.9294	2570992.807	-14.1
482427.0377	2576105.022	-9
481794.3514	2576303.427	-8
481035.66	2572520.544	-10
491056.3998	2578226.894	-15
489502.3084	2576522.93	-15
484011.2455	2577128.665	-10
371156.6276	2526874.219	-5
374313.8678	2525212.539	-5
369259.5329	2525023.333	-8.1
367039.19	2524982.675	-8
369378.6234	2527666.582	-5
366611.6225	2528038.613	-5
375579.6299	2524214.394	-5
376392.0414	2521361.272	-5
370513.0116	2522332.742	-10
373076.24	2523470.789	-7.8
367983.0308	2526466.247	-6.4
371218.2632	2523367.837	-9.1
366784.0225	2526252.702	-7
520588.2476	2566957.932	-24.8
521780.0227	2564851.472	-24.2
515850.424	2562474.959	-29.4
524317.3114	2562618.119	-35
526337.9577	2563583.396	-34
525992.6319	2566007.173	-37
524776.4034	2564937.844	-35
518860.9081	2561437.567	-21.4
519376.4387	2569782.7	-31
522380.3916	2568228.853	-23
524211.491	2571531.003	-24
518797.6294	2568176.462	-32
517017.3038	2570190.245	-27
527232.1889	2577531.383	-31
524366.0106	2573823.897	-30
520605.0955	2573291.157	-22.8
518072.8171	2573353.738	-23.3
517599.5157	2572101.445	-27
525406.9881	2570189.04	-23.6
526646.8294	2571403.411	-24.8
527224.8322	2574909.31	-32
527746.7183	2569218.192	-27.2
522418.6296	2573557.306	-24.3
518843.4372	2570469.144	-23.7
519409.9206	2574910.203	-20.7
511593.3067	2570621.272	-28.8
509799.2417	2573244.638	-20.2
510385.6182	2570568.499	-29.4
512211.2005	2571605.519	-25.6
529650.2405	2586806.245	-31
527819.5287	2590123.127	-29
523597.5068	2588589.942	-26.1
521236.3029	2589890.809	-21
518406.4366	2587080.454	-22
518797.27	2585802.849	-21
517227.379	2586459.747	-24
523641.6913	2583780.665	-31
524311.6439	2590646.613	-23
520507.0831	2589599.897	-20
519507.1561	2591680.4	-20
517739.3412	2585538.016	-24.1
525412.7446	2586748.271	-18
527813.573	2584249.098	-32
527242.9314	2583641.925	-31
526063.2191	2583442.153	-31
526609.3249	2584194.175	-31
529021.1245	2582617.558	-31
529018.2532	2584080.122	-31
527518.3403	2581836.607	-31
529627.9393	2579495.306	-32
529617.3514	2578704.71	-33
526015.1587	2578684.769	-32
525451.4133	2580976.451	-31
524861.4671	2584480.332	-32
521164.414	2581960.659	-30
518717.6803	2582892.87	-20.4
524197.8568	2579593.591	-31
519806.5497	2578348.507	-22.8
523232.3089	2595881.178	-16.1
522190.6248	2596659.614	-15
495486.032	2582023.645	-14
497219.6341	2581133.829	-15
497249.6735	2579091.529	-16
494807.5407	2581477.058	-14.3
493774.7003	2584745.142	-10
494674.56	2583861.987	-12
491474.6683	2583136.532	-10
481248.8483	2583811.364	-5
483284.4021	2585137.084	-5
485988.847	2584196.126	-7
485374.3521	2582805.316	-7
484265.5135	2583481.075	-6
483310.704	2582575.6	-6
482278.0595	2581796.771	-6
486389.6865	2586177.453	-6
486260.6482	2583447.463	-7.1
479919.9773	2581360.227	-5
486029.6775	2588262.797	-5
481150.147	2580438.911	-6
487060.3494	2580152.205	-10
484883.8684	2575809.534	-12.1
488426.4568	2578076.584	-13.2
483805.2887	2581243.188	-7
485422.3953	2580055.653	-9
486299.2921	2580884.912	-9
488089.0458	2582240.507	-9
487517.3025	2582346.387	-8
487224.5085	2581424.307	-9
489755.3007	2581409.161	-11.4
488997.7944	2577193.351	-14.1
486757.1095	2575785.344	-13.7
485625.6798	2576366.145	-12.2
493885.5036	2578552.825	-16
495973.2541	2576480.833	-17
496032.3668	2579058.055	-16
497886.7289	2577444.924	-17.1
491563.8655	2579138.983	-14.7
492178.3705	2581368.044	-13
503989.4795	2584562.5	-15.1
505534.8916	2583245.382	-17.7
504951.198	2582454.607	-17.7
506531.8233	2584747.872	-17
501519.6754	2588132.787	-10
498953.4935	2587447.583	-10
501946.1305	2582111.327	-16
500984.9625	2582058.527	-16
499926.4625	2583889.978	-14
500023.7783	2587776.951	-10
498199.2134	2585682.046	-11.3
498989.7065	2583442.023	-14.1
489368.4066	2583762.035	-7.1
489655.9818	2586173.074	-6.8
487837.971	2586681.744	-7.1
487805.8881	2584652.634	-7.4
487481.7912	2584999.878	-7.1
489601.233	2589030.158	-8.5
493273.8855	2589067.554	-7.1
495110.0878	2588737.425	-7
493273.4408	2588092.513	-7
494611.2493	2588118.316	-7
492300.2072	2587539.588	-7
491643.7806	2588132.875	-7
489964.7558	2587106.176	-7
491571.789	2589845.828	-11
494150.2152	2590925.032	-10
491691.0703	2585721.601	-7
488165.2568	2587819.026	-7.3
489101.3647	2587317.608	-8
486328.5917	2587609.793	-6
485210.7498	2588691.325	-5
486999.5471	2589915.032	-5
484553.9407	2588599.764	-5
493017.332	2586590.544	-7
485058.0834	2582037.488	-7.1
489003.3386	2586342.64	-7.2
483890.0952	2584963.94	-7.4
482734.5368	2585017.95	-5
482113.5312	2584504.816	-5
482403.5728	2582896.97	-7.3
481126.415	2583122.541	-5.1
480018.9572	2582860.472	-5
478981.7434	2580687.836	-5
487471.9406	2592536.558	-2
488610.9535	2593840.089	-2
489246.2811	2594835.742	-2
489252.0909	2592803.948	-5
488857.5517	2591982.04	-5
489572.0694	2591404.395	-7
496912.0643	2588722.833	-8.2
497167.559	2589284.089	-8
495336.1368	2589276.649	-7
494168.9317	2589869.995	-8.4
496532.3404	2587481.717	-9
493839.107	2586288.832	-8.1
498044.0339	2586868.087	-10
497177.38	2586588.233	-10
522183.0398	2609311.469	-8
518576.901	2608739.847	-9
517085.2189	2606919.66	-10
522877.5128	2607876.286	-10
520776.5275	2607741.385	-10
519792.9116	2607608.255	-10
515300.2962	2606364.27	-10
514353.0587	2606152.486	-10
523849.3473	2607759.249	-10
518493.4372	2607514.318	-10
518628.8356	2606104.597	-11.1
513321.8675	2604728.448	-10
515955.7884	2606760.267	-10
527831.0183	2606926.271	-10
526205.8269	2607269.157	-10
529486.024	2606896.571	-10
524762.7045	2607727.825	-10
524775.9235	2604940.994	-13.1
520606.2134	2605314.018	-12
517458.214	2605569.241	-11.1
519504.6473	2608607.708	-9
522193.826	2610013.536	-6.7
512369.3437	2604593.723	-10
509323.7281	2602788.926	-10
509135.1882	2601191.822	-10
510871.8607	2599153.296	-10
509894.135	2600117.118	-10
512330.6609	2598585.228	-10
515764.0194	2601898.437	-12.4
512594.4285	2602780.83	-11.5
511242.6884	2603686.273	-10
509687.2146	2604307.091	-8.8
517918.0305	2605094.898	-11.3
503186.7158	2595184.107	-2
502442.84	2594772.863	-2
502253.2237	2594630.529	-2
502399.1728	2594187.828	-2
503711.9805	2594678.259	-1.5
503273.7069	2597571.68	-7
502755.6864	2598962.999	-7.8
500028.5935	2598729.255	-10
498822.9687	2598160.082	-10
497578.3629	2597622.639	-10
497899.2916	2598075.857	-8
498132.3371	2595693.541	-10
499989.7024	2596726.447	-10
500845.3489	2597464.347	-10
501039.7669	2598128.449	-10
500271.6682	2597949.216	-11
497821.2103	2596062.521	-11.1
501273.0193	2599224.742	-8
502215.8324	2600742.775	-5.5
504082.9921	2598181.685	-7
501610.0485	2594119.866	-2
501084.8771	2594072.384	-2
500734.7182	2594894.564	-2
489196.7041	2595442.988	-2
490433.4507	2598087.945	-2
492270.736	2597454.398	-2
493097.144	2597306.411	-2
492756.6497	2596948.178	-2
494692.0149	2597969.837	-2
495489.3557	2598169.852	-2
495051.6705	2597695.643	-3
494254.1496	2597116.173	-4
493232.9119	2596526.307	-4
491900.7291	2596505.899	-3
490646.736	2597118.027	-3
495684.1956	2599476.89	-0.8
491872.7354	2598635.216	-1.8
491814.8795	2599494.35	-1.1
506249.3429	2597914.591	-7
505724.3618	2597764.166	-7
506313.3812	2601614.552	-7
504862.8946	2600712.732	-6.1
503987.8536	2601234.254	-5
503215.1108	2600973.171	-5
507743.0676	2600152.654	-7.9
506678.5947	2600088.884	-7
507262.2652	2599322.295	-7
502595.2953	2601573.893	-5
505459.8945	2602989.829	-5
504811.2648	2602523.156	-5
504498.0187	2601803.623	-5
501151.7162	2600666.348	-5
500716.88	2601554.493	-3.1
500181.2172	2599934.217	-5
505198.3758	2605812.881	-4.2
502361.0042	2604557.747	-3.5
508454.5063	2604612.703	-7
505779.7767	2610019.046	-2.1
505255.1517	2610071.554	-2
506887.7999	2608912.695	-2
507550.086	2605771.74	-2
501087.2492	2603508.042	-2.8
503313.2377	2602264.52	-4
502749.347	2602939.037	-4
501670.452	2603086.45	-3.2
500951.2762	2602021.73	-3.2
501777.5163	2601853.149	-4
501582.8704	2604066.769	-3.3
505256.269	2605005.791	-3.1
505775.0712	2611538.529	-1.1
504191.8816	2610916.054	-1
503016.4175	2611063.342	-0.4
500762.8139	2609197.25	-0.1
499185.745	2608372.753	-0.5
500708.7451	2608072.323	-2
500264.228	2608088.12	-1.1
494784.2545	2594963.45	-13
493071.8467	2593214.342	-11.2
498737.6645	2597705.894	-11.1
499369.6224	2596704.451	-11.1
495541.0183	2597113.58	-8
493670.1504	2599209.311	-1
492309.367	2599802.899	-1
495031.436	2599775.373	-0.2
492293.5958	2592898.498	-12.1
498421.6032	2597139.341	-12.7
499564.1041	2596928.441	-11
507598.7548	2602956.631	-7.2
505376.4501	2600070.01	-6
503771.6763	2602876.088	-4
503103.4827	2602717.814	-4
509154.5275	2601942.933	-10
511378.1985	2601746.843	-11
511158.6263	2602879.85	-11
510576.2821	2601719.89	-11
510601.6783	2600204.618	-10.7
522575.2403	2611595.332	-3
521180.2191	2610657.7	-6
516943.2275	2609808.868	-7
516178.7763	2609254.585	-7
523767.9845	2609884.258	-7.4
521567.0111	2611870.519	-4.1
520546.7526	2612093.05	-4.5
520187.1167	2608745.683	-9
517236.8862	2607938.136	-9.1
516663.4076	2610256.551	-6
515706.9025	2607620.175	-8.1
516131.9723	2607646.991	-9
524161.8122	2606722.51	-11.4
524204.4429	2610319.804	-1
519539.337	2611337.768	-5.8
519036.4403	2610553.094	-6.8
518920.3369	2611126.127	-5
518440.7883	2611053.042	-6
517506.0816	2610808.125	-5.8
517693.788	2611230.003	-5
521798.2378	2611090.609	-5
520200.6174	2611694.438	-5
520583.1563	2611655.442	-5
517305.4795	2611012.123	-5
521771.3487	2612836.478	-2.7
515162.4504	2609444.954	-6
515995.6314	2609806.354	-6.3
515845.399	2608585.511	-7.7
517635.3515	2608353.544	-9.1
512580.7207	2605887.574	-7.8
512404.9729	2605432.834	-7.5
511949.7541	2605050.337	-9
514426.3867	2606594.221	-9.5
519939.0921	2602101.384	-13
520164.2283	2602726.258	-11.1
520582.6794	2600639.681	-13.8
522164.4705	2600863.351	-14.1
518613.947	2600787.263	-13.3
522449.9606	2600112.724	-14
525545.6984	2601576.364	-14.7
524451.3333	2600303.228	-14.7
525921.9308	2599900.969	-14.6
526094.2107	2601425.536	-15
522751.167	2603047.172	-13.7
522537.2358	2604691.276	-12.7
526021.3007	2604712.864	-13.1
524599.2705	2600781.157	-14.5
525253.2803	2606268.994	-11.7
528725.3627	2603965.838	-14.1
529196.2711	2604687.794	-13.3
527876.7003	2605595.991	-12.3
526641.4401	2605119.333	-12.8
528092.8652	2602332.821	-15
524934.3593	2604300.432	-13.5
472692.6219	2582160.178	-3.7
476291.7847	2580777.055	-5.5
472486.6811	2582641.493	-9.3
472047.6071	2582069.149	-2
471169.8768	2582647.516	-5
469680.9452	2582766.445	-5
469699.8713	2582502.88	-0.7
476839.531	2579601.749	-3.1
508004.9323	2587953.515	-10
505426.3639	2588605.882	-10
509503.2818	2587954.405	-10
508472.501	2586994.547	-12.3
504016.0682	2587045.367	-12.1
502984.6314	2587255.942	-11.6
502459.4611	2585759.029	-13.1
501544.579	2587382.212	-11.1
502974.6102	2588700.053	-10
502001.6001	2589479.922	-9
500980.1006	2589543.064	-8.4
500960.7206	2588362.473	-9.8
705963.7999	2498442.338	-75
711968.8862	2501917.52	-75
706079.1089	2492007.583	-86
710015.0456	2495108.737	-85
715877.5156	2497210.657	-86
714028.0975	2491964.095	-90
719976.4288	2494012.37	-88
716054.9898	2484690.281	-114
710007.3725	2488197.922	-97
719980.0697	2481692.321	-134
710081.4069	2482756.963	-113
719890.8427	2488644.218	-106
714322.6971	2473475.252	-147
718303.9471	2469955.626	-172
722453.3142	2465845.572	-203
720239.4725	2475559.465	-156
712293.9435	2467997.602	-180
706137.9211	2478989.217	-120
710257.241	2475352.716	-137
708321.0879	2469736.765	-148
710510.8811	2462499.565	-151
706503.6634	2458603.907	-305
712507.4861	2458781.701	-380
716343.2632	2463931.629	-185
718688.5735	2457025.364	-751
710597.7021	2455019.288	-582
719810.742	2500464.418	-85
725870.3086	2497745.614	-85
727796.382	2501472.553	-82
725885.5726	2492212.453	-103
731913.1865	2492987.717	-108
731974.0804	2496258.526	-95
735970.9996	2493990.265	-113
735976.6842	2490581.819	-126
745724.4173	2492705.977	-140
744594.6451	2498335.809	-121
748384.8042	2501955.922	-123
738145.4282	2497024.753	-109
735518.1096	2500318.175	-100
824159.2394	2488913.012	-401
832735.207	2490457.481	-147
823415.5745	2492792.454	-313
828211.9891	2494857.43	-229
836350.9794	2462519.844	-722
840703.9399	2465022.61	-396
839555.9668	2458498.451	-704
713692.4204	2446468.134	-1351
718666.1004	2445918.467	-1274
721260.1146	2441911.951	-1308
716870.2579	2437273.596	-1406
713551.768	2441922.432	-1103
708754.6456	2451142.466	-748
712670.195	2449481.344	-902
707603.5794	2446249.733	-1362
707971.9247	2435544.98	-1414
709199.971	2441750.418	-1682
712189.7797	2438732.088	-1673
724225.1261	2438845.258	-1673
721316.6215	2435890.666	-1506
730637.9797	2438718.693	-1605
726648.3561	2446030.549	-1259
728765.3216	2442396.086	-1438
724558.5876	2453757.09	-1133
724572.0312	2449604.411	-1044
736684.2986	2447947.904	-1119
742057.5371	2484227.911	-158
746204.9435	2476872.315	-370
740664.1777	2480978.297	-200
736114.815	2481040.042	-159
758340.2878	2477758.568	-610
754238.1661	2477817.303	-717
751591.1096	2474675.25	-487
755013.159	2480652.043	-344
770215.9777	2472294.504	-1599
774640.9868	2470747.264	-1510
778945.3296	2472134.077	-1671
781321.2305	2468325.604	-1403
791356.0424	2474484.423	-1255
786687.8379	2474911.892	-1512
792160.7048	2471238.816	-1454
882913.2482	2451335.09	-10
882028.7638	2451891.764	-20
881233.0501	2451531.799	-45
880345.658	2452516.216	-71
879311.4415	2452253.536	-100
878212.0339	2451632.925	-117
883303.8893	2450148.533	-10
882771.3944	2451703.921	-10
881370.8229	2454362.955	-20
730364.0895	2456683.796	-1049
726565.1857	2456180.041	-765
734541.175	2451603.882	-1112
730657.6108	2450926.593	-1437
720402.3426	2462542.593	-455
724255.7354	2460626.148	-543
726432.5124	2463223.165	-460
726094.4664	2479359.856	-150
724081.9229	2485242.372	-128
730084.2488	2483788.045	-139
729963.0894	2488524.729	-124
736011.3124	2485805.031	-143
742494.4394	2464883.403	-625
740312.1569	2469504.022	-263
746325.8158	2469400.338	-628
738369.2394	2460969.697	-1061
732331.5911	2472330.582	-255
736359.1366	2469635.685	-315
732364.3712	2467017.647	-260
728377.4213	2468246.732	-423
724163.4741	2470347.613	-236
726255.9894	2473731.991	-196
736607.8592	2456804.939	-821
740627.0955	2452868.522	-1235
732454.6531	2461544.084	-682
736331.036	2476171.869	-234
740329.4531	2473767.655	-318
744346.2375	2471839.321	-505
755611.2815	2496254.607	-176
760900.6377	2496296.693	-256
755628.1343	2486270.211	-253
763710.0536	2491768.407	-330
759824.2039	2488946.138	-263
756614.9277	2493257.37	-216
754438.9596	2491480.537	-200
772672.4182	2486853.912	-1000
775304.4587	2482930.738	-1379
772477.0598	2477763.429	-1476
768990.0347	2483610.874	-1185
768706.1578	2480190.158	-984
777269.2461	2479352.012	-1617
748115.255	2487730.992	-170
751738.5923	2485136.521	-262
749631.2845	2478996.979	-288
746100.6561	2480175.585	-263
742141.4176	2479321.986	-293
758210.3272	2463170.834	-1505
756058.6033	2466817.109	-1183
756438.2836	2459399.188	-1813
762059.8238	2459532.048	-1763
764211.4404	2457727.114	-1936
746404.8939	2457543.865	-1391
752312.1104	2457493.04	-1632
754497.2707	2451489.053	-1811
744557.3971	2460257.461	-950
746456.3513	2451105.137	-1723
748612.9625	2449121.751	-1656
738609.6849	2444900.761	-1391
746673.9454	2443930.818	-1852
742531.8469	2447149.523	-1580
740848.1069	2440915.194	-1511
736794.2961	2439123.908	-2153
738684.735	2436929.843	-2208
742758.5303	2435852.802	-1924
746862.2148	2438287.955	-2131
748812.64	2438097.089	-1987
752829.1563	2433474.818	-1503
746902.4955	2431830.515	-2118
746865.7329	2427034.762	-2300
742865.6302	2429393.726	-2444
735177.8136	2421830.484	-2500
741064.1834	2423184.443	-2297
739058.6384	2426437.077	-2171
732984.7095	2429550.385	-2260
736877.2782	2432136.395	-1971
732897.6122	2435146.553	-1751
752769.2516	2502190.954	-146
759839.3836	2501760.591	-189
756773.1405	2499419.579	-169
759900.4361	2498793.289	-200
765565.1497	2498177.998	-254
766585.7313	2490286.29	-733
770844.8042	2496189.997	-371
774259.798	2491555.245	-747
768112.5479	2492146.804	-813
770166.5851	2502268.65	-252
775444.3619	2499284.417	-452
781030.2815	2496990.622	-770
780282.7054	2501429.85	-701
785267.6131	2497881.248	-849
776878.2062	2495701.8	-814
788260.4397	2502257.668	-773
793574.4288	2501078.976	-714
790021.5212	2500457.353	-725
793304.4206	2503026.122	-668
788168.4876	2495148.805	-982
791856.6079	2496073.151	-694
822429.3601	2497757.818	-236
826553.6195	2503228.586	-155
830139.0709	2502302.544	-77
827346.8871	2497056.923	-180
823334.3638	2495520.544	-271
827461.03	2495726.637	-227
836121.9833	2501151.625	-20
834718.7338	2503454.036	-20
837650.1874	2498535.317	-20
838551.8032	2500782.771	-10
839342.5622	2498720.427	-10
839038.0707	2500962.429	-5
839857.3401	2499829.791	-5
837353.6663	2503100.089	-5
836521.166	2503958.034	-5
836491.7088	2503513.984	-10
837167.6806	2502642.034	-10
837953.1119	2501255.207	-10
835492.2505	2502151.317	-20
836731.9586	2500162.072	-20
839025.9163	2499737.5	-10
834278.6723	2504187.888	-20
832666.4351	2503671.133	-32
832852.2524	2503859.913	-30
833996.5463	2501194.748	-30
835228.075	2498674.735	-30
833191.2301	2503288.601	-30
835873.8085	2497171.269	-30
834559.1367	2500164.991	-30
834513.225	2502591.189	-25
800701.9452	2500126.144	-714
797833.7852	2502465.827	-618
802267.9763	2502225.47	-658
805502.1776	2503693.294	-353
801457.2818	2496098.891	-776
805488.2189	2498489.827	-474
805373.5903	2496366.178	-615
805158.3258	2490509.482	-551
802719.1587	2493353.097	-1065
806595.873	2493060.453	-623
760886.0401	2431288.497	-2430
774787.8698	2435750.954	-2300
768899.1483	2431996.615	-2199
768648.1184	2438797.134	-2071
752752.4895	2442744.283	-2091
758475.4516	2442857.014	-2306
758510.3754	2447908.101	-1864
766425.8022	2448455.681	-1999
764382.4213	2451290.707	-1996
778628.6257	2439489.376	-1960
774732.4033	2445026.017	-2031
772713.4408	2443078.592	-2295
764725.9473	2443006.417	-2171
786355.0479	2432655.229	-903
782820.267	2430811.1	-1643
781846.7815	2439854.532	-1312
782779.806	2435136.368	-1853
778973.7746	2432451.742	-2305
761191.8648	2475360.496	-995
764567.6119	2473782.427	-1403
761802.4737	2470283.058	-1636
762659.0298	2485891.668	-352
762752.9555	2482675.45	-574
758505.248	2482709.336	-271
764703.4077	2479930.483	-950
792790.5598	2478160.34	-1387
785637.9609	2482181.693	-1344
782293.964	2477253.282	-1240
790196.102	2482010.661	-1275
792182.6808	2483852.573	-891
778082.2086	2486114.332	-1109
780293.5013	2490185.082	-982
788568.5568	2491373.824	-1263
785192.459	2493653.524	-1249
792525.1133	2492023.595	-778
792636.2257	2488754.333	-845
787322.3299	2486818.956	-1286
795840.326	2485106.053	-1111
795787.9879	2492338.836	-1187
800185.0713	2489363.43	-979
770964.6558	2455743.138	-2264
781317.4025	2454533.303	-2008
791237.5396	2459452.499	-1563
787835.5061	2469199.909	-1510
797695.5014	2467925.785	-1178
805668.9745	2471864.594	-1160
803322.1878	2470351.662	-1082
807204.1221	2467621.61	-1013
808315.8858	2470007.677	-957
806369.6811	2468398.677	-942
779698.9782	2465181.244	-1903
773256.4537	2467847.35	-1592
752198.7793	2461797.821	-1525
750188.117	2465457.592	-995
808785.2327	2444897.85	-978
808684.7477	2448510.518	-1033
805381.2051	2449606.795	-925
799451.7997	2444704.178	-1944
805280.6857	2445924.343	-1049
785217.074	2447886.314	-1578
811696.1494	2432386.804	-1060
811012.9785	2438956.266	-1159
807996.2755	2437221.688	-995
820756.7962	2443928.764	-1444
815635.3881	2444814.665	-1223
816589.4194	2440176.717	-1124
825502.5697	2443228.369	-908
824352.5244	2439945.734	-1373
808479.3823	2462472.205	-972
811716.0404	2460306.962	-1097
811883.8765	2465429.106	-961
804197.5344	2457823.767	-795
790795.2584	2427670.913	-2000
792254.7247	2429681.528	-1541
800373.4168	2431030.135	-1665
795546.7895	2422602.048	-2000
814651.5822	2473334.243	-772
824175.5978	2475166.274	-661
821712.3525	2477938.559	-650
817471.7263	2469275.251	-807
813437.6237	2471449.462	-778
801276.7603	2452253.575	-1578
807530.4682	2453219.321	-994
805078.9093	2452897.004	-1130
810651.8873	2455698.987	-1179
807414.6591	2456859.296	-985
830128.2777	2432591.851	-1587
835561.3235	2438224.101	-1028
834437.6163	2440638.953	-910
831023.6944	2438148.947	-1060
830495.0728	2441443.12	-805
826775.2168	2445658.725	-739
833686.7438	2446239.33	-707
836836.6513	2445593.952	-840
800936.0936	2478266.51	-1234
798169.0442	2481283.981	-171
808494.3063	2482805.694	-564
805346.32	2483204.937	-1056
803037.654	2484597.445	-966
807927.896	2479585.96	-860
806893.8275	2476293.705	-859
811241.292	2476369.803	-871
804568.4295	2487908.036	-680
810642.5584	2486836.509	-629
808086.5848	2485624.317	-618
809685.6512	2489542.412	-594
813440.1479	2489320.654	-623
815585.6196	2488204.15	-577
814299.2702	2483322.698	-692
818872.322	2483442.743	-604
813933.4995	2492854.124	-464
809900.9713	2492825.182	-649
816231.9536	2495390.262	-416
815363.2963	2499013.901	-377
812046.2808	2495325.855	-528
812709.9323	2500775.046	-429
813914.1403	2497010.435	-440
818920.4893	2497197.98	-332
820655.1716	2494415.767	-364
816482.8366	2501295.747	-425
817277.2319	2450006.335	-1145
823085.1264	2447354.132	-1201
826824.3853	2448476.465	-711
828716.0077	2446922.047	-736
826567.6867	2452656.366	-774
825184.2119	2446574.128	-933
818027.8337	2464696.029	-828
823500.5248	2462217.309	-731
815175.852	2462640.658	-890
823127.9885	2468925.421	-747
814303.0679	2466330.308	-901
814003.5649	2469002.467	-814
813800.4153	2464459.955	-945
819029.6703	2462191.24	-824
818289.7721	2466543.199	-817
840402.2275	2451583.049	-552
842511.01	2455904.6	-614
846440.4665	2450373.213	-510
849746.0503	2455076.829	-412
852155.7314	2448500.344	-511
848391.3902	2449208.213	-505
843023.007	2454362.003	-580
846314.269	2455758.345	-569
837841.5952	2451796.702	-730
837764.6174	2453999.267	-799
831604.3346	2454762.902	-807
832771.5405	2452238.359	-823
828038.0207	2454268.198	-711
831292.0542	2457321.402	-800
838186.8481	2458988.825	-755
836498.7677	2461195.667	-763
840123.3005	2456355.322	-730
838504.331	2462436.557	-590
837198.3144	2460104.287	-760
836282.2483	2462586.452	-722
858277.9144	2433269.775	-848
860943.5652	2433425.421	-433
863458.6737	2429715.033	-1007
853107.8341	2432225.976	-1005
853130.4372	2435953.442	-865
856426.6959	2437811.846	-897
861647.5263	2437148.823	-274
869347.5067	2434779.124	-430
874078.7415	2436305.48	-237
875306.2364	2432311.085	-202
870139.2161	2441337.802	-414
875055.4352	2440588.091	-177
874561.5941	2442308.258	-241
878363.3205	2441966.787	-414
845356.7312	2442704.2	-709
842374.2401	2433451.272	-1229
849067.4687	2441000.466	-799
842277.1454	2440822.483	-854
850157.2481	2436139.062	-946
851796.6031	2444305.086	-559
820717.9867	2424733.624	-1420
831339.5779	2447552.508	-738
837197.5692	2447914.674	-821
835266.1912	2451977.105	-834
829778.6661	2453364.929	-745
840489.2663	2450482.377	-515
841624.3451	2445215.379	-783
832268.8865	2450700.564	-752
840851.0295	2447746.651	-737
840648.4153	2453113.071	-641
834497.2481	2447557.296	-734
821999.3791	2454523.626	-1305
823436.8218	2458115.641	-1277
828505.2373	2457838.669	-722
827708.7079	2450683.711	-765
821751.8453	2456998.978	-1425
819672.6838	2457721.579	-1145
829617.2445	2459300.308	-714
828673.4191	2456852.6	-707
829866.8719	2451533.823	-743
822622.7593	2455882.237	-1156
820001.7278	2459654.585	-705
829876.9073	2456310.552	-717
859934.5106	2445629.083	-630
863162.3662	2448092.319	-542
865642.7703	2448809.828	-422
873612.6537	2444900.098	-457
870932.3888	2438012.266	-365
867947.0377	2445664.153	-507
874186.6905	2446114.991	-350
865133.6171	2446020.958	-400
883328.5234	2430900.452	-50
883696.0754	2430845.987	-30
884150.3081	2430603.527	-5
882304.0671	2430954.892	-260
881794.5634	2430631.045	-252
882053.6139	2429491.412	-200
882350.5197	2429234.546	-119
883196.2919	2432359.988	-152
880741.054	2431825.474	-108
880705.9328	2431032.555	-171
880395.9419	2431426.42	-111
879200.298	2431000.85	-93
877671.4692	2431842.16	-102
876571.4223	2433043.608	-165
884549.1035	2428431.956	-50
884874.4809	2428730.292	-30
885080.6411	2429118.152	-20
885205.4223	2429306.011	-10
884623.63	2430182.997	-10
884489.9034	2429856.307	-20
884311.0009	2429614.335	-30
883972.766	2429592.932	-50
883622.1538	2430336.931	-50
885751.6102	2427616.252	-10
885172.3405	2427405.795	-100
884706.2462	2427117.245	-100
884241.9517	2426448.548	-100
883732.5548	2426420.377	-100
883946.318	2426140.394	-100
882977.5011	2427075.409	-100
882969.0902	2427423.725	-100
883099.4363	2428147.675	-100
883155.9715	2428560.929	-100
882639.5081	2429134.598	-100
882524.1754	2429931.822	-100
882418.6168	2428138.578	-181
881415.1024	2428066.878	-175
879236.2828	2429079.927	-103
878459.4366	2429114.158	-88
877707.698	2427578.136	-51
883020.0969	2425421.712	-126
880635.4337	2427753.754	-181
879535.2387	2427912.195	-102
881296.7982	2424838.973	-105
881664.2125	2425956.707	-108
880480.9593	2429056.959	-180
882947.9162	2426370.475	-120
877839.451	2428769.343	-82
879693.7256	2426505.046	-100
878973.9642	2430020.404	-100
879211.8235	2430580.539	-100
880113.5252	2425643.83	-100
878213.3084	2426176.628	-54
877357.9855	2425879.049	-70
876115.0098	2428938.458	-87
875587.7542	2429876.386	-134
873418.4751	2430986.715	-255
874003.7378	2426538.853	-273
872236.7185	2429916.085	-243
873560.3042	2424442.788	-323
872760.4009	2431736.812	-263
869859.3921	2431161.802	-408
874284.7853	2433795	-221
868125.9285	2433682.093	-501
867344.1306	2426298.692	-608
869048.4144	2426641.833	-500
867980.6229	2428596.932	-500
868512.5161	2430087.631	-454
870985.7491	2424918.257	-420
869025.7258	2428146.049	-405
864371.468	2427008.874	-954
869980.1632	2433685.772	-405
871691.4947	2428973.925	-322
871508.5804	2432045.215	-332
871528.6861	2433286.482	-314
870941.8913	2427847.578	-358
832356.2427	2462846.929	-647
833453.1321	2466702.288	-770
838096.9597	2469932.514	-645
834454.9261	2470265.475	-664
823826.9347	2501782.414	-154
826169.7023	2501554.974	-173
827296.3505	2500438.906	-183
822570.4285	2503497.633	-168
831877.5513	2499684.328	-50
831692.1066	2500643.087	-50
833000.4747	2501636.324	-34
835862.3802	2494470.718	-37
839035.691	2491156.566	-30
838382.8912	2487373.297	-50
846263.9293	2486045.505	-24
845964.7874	2488881.53	-20
843218.7186	2485280.718	-30
844378.1271	2486106.273	-27
852523.3504	2488996.654	-77
850130.8705	2489662.765	-10
848486.6086	2490773.724	-10
851119.4644	2489558.545	-10
856134.3634	2483995.782	-20
857499.4223	2485143.923	-10
856592.5239	2483285.69	-21
863327.8842	2480332.874	-20
867486.4896	2476418.159	-21
871819.6128	2471679.316	-22
875245.6296	2467270.524	-20
875541.5778	2466411.663	-20
872674.6647	2466877.457	-35
832064.8275	2478397.075	-312
834898.2813	2480173.524	-232
837255.6498	2483497.36	-143
830868.1511	2483280.159	-313
835739.3009	2467558.51	-624
825983.4675	2483288.828	-590
830545.2865	2479247.629	-361
824209.1305	2480380.375	-620
825828.3552	2481683.71	-615
825955.9421	2485058.994	-453
831840.0037	2476084.622	-370
834663.4176	2482467.651	-220
832710.2123	2481719.543	-270
836246.0995	2479367.913	-228
835633.648	2485656.564	-152
835589.2886	2484445.785	-166
847361.7692	2481037.697	-238
846255.9224	2478593.051	-108
847732.7781	2477631.562	-101
853936.6021	2476892.575	-70
854559.6889	2477991.719	-54
854402.2452	2479722.39	-40
852924.8856	2480884.413	-43
852707.6712	2476191.467	-82
833981.1333	2465134.202	-754
835823.132	2469145.71	-758
827968.7703	2473246.589	-527
825313.4542	2472367.397	-682
828185.074	2471026.498	-612
828136.9425	2475395.638	-481
823861.2956	2477540.421	-639
823077.788	2475916.997	-660
828425.0786	2479354.451	-453
826320.1957	2465808.105	-1101
828664.2529	2467058.107	-1045
825883.8653	2468464.268	-758
849249.6596	2463912.249	-257
845797.1733	2463914.501	-347
848644.9961	2466775.755	-171
849297.1206	2465358.436	-221
844749.8172	2465719.083	-317
847476.8462	2464336.182	-280
848541.3646	2462881.835	-307
844292.9324	2470502.578	-141
846696.0312	2471119.759	-136
842956.0554	2470447.698	-187
853075.0843	2469687.875	-113
855336.3577	2467997.179	-121
856433.3885	2466438.439	-134
853133.3865	2466597.685	-145
851839.0841	2468031.778	-138
855647.2778	2470646.073	-81
839370.605	2495829.677	-20
839986.9366	2494569.803	-20
840466.2033	2493689.615	-20
838751.2442	2496396.671	-20
837198.9367	2494508.438	-30
836169.1005	2496188.223	-30
843194.3313	2490617.366	-20
846565.852	2488602.326	-20
842256.132	2491443.75	-20
846605.2308	2492087.372	-10
847634.6961	2491108.075	-10
848415.3851	2491567.837	-5
847108.6445	2492409.383	-5
849472.607	2490918.688	-5
846134.4701	2493192.506	-5
849242.3742	2490253.572	-10
845486.369	2492564.264	-10
844964.3143	2493423.588	-10
843690.2644	2494518.911	-10
844428.5467	2493855.758	-10
842640.1781	2494871.605	-10
842195.0686	2494762.718	-10
845352.5781	2490657.813	-16
844232.2741	2492382.708	-12.7
848824.6175	2489746.174	-14.1
844742.6854	2489630.602	-20
860692.2175	2481827.587	-20
862138.3753	2481003.399	-20
866081.9558	2480624.265	-10
868189.101	2479153.558	-10
868821.597	2478577.226	-10
860733.8323	2483402.579	-10
867356.9164	2476968.974	-20
879222.5773	2462335.586	-10
879729.7447	2458461.361	-20
880148.3292	2461158.755	-10
881585.4528	2455460.108	-10
881221.1928	2457489.586	-10
880043.7761	2461410.869	-10
880427.2892	2461008.313	-2
880348.7207	2459791.843	-5
882042.8306	2453458.824	-5
881980.0887	2453368.578	-10
881819.6042	2454866.504	-10
882265.4643	2449603.83	-20
882184.7512	2448471.795	-20
881398.1551	2443349.121	-20
881328.5134	2444760.527	-20
881602.6143	2446123.242	-20
880672.2851	2443806.805	-34
877898.6819	2445969.108	-100
877103.9759	2447039.112	-120
877752.819	2448454.009	-119
875840.762	2444286.083	-411
873633.5558	2447686.77	-321
870779.0695	2439979.629	-381
873891.8321	2440449.148	-233
875065.1295	2443589.725	-428
829558.9614	2487775.925	-464
830093.4135	2486528.509	-291
829925.812	2484727.719	-317
827993.7541	2488708.458	-347
827642.9387	2484782.059	-556
854916.9261	2453045.826	-415
857624.5074	2458534.573	-371
853940.558	2457291.959	-402
858658.4908	2453534.876	-609
869949.1053	2448964.158	-380
869276.5029	2447225.739	-400
872506.5251	2450054.246	-296
872337.9749	2445746.938	-428
874877.7272	2450638.61	-230
874831.4995	2454732.385	-220
876673.735	2454832.024	-157
870155.9625	2456353.055	-322
869704.8663	2453586.215	-360
865483.7728	2456155.346	-671
868489.6325	2457473.219	-350
867151.64	2453976.825	-581
865822.3276	2463527.338	-298
864680.5235	2467262.485	-89
862583.6962	2464235.766	-167
867759.0679	2468008.078	-256
861661.429	2463628.309	-189
868052.6609	2464316.359	-385
861918.4625	2468433.503	-58
863417.9359	2466718.194	-97
860775.3653	2443622.691	-557
862590.5797	2439382.688	-200
857871.9209	2440362.439	-638
868304.1323	2440464.612	-531
870698.5437	2442062.495	-420
870681.3484	2444047.373	-500
872925.3884	2441637.319	-274
872826.7767	2442891.654	-314
874692.7925	2459596.327	-147
871474.2325	2461050.745	-173
869011.4188	2459157.551	-276
868461.4697	2461626.181	-435
868426.28	2463116.955	-223
870525.3109	2464777.103	-147
870873.0668	2459967.23	-200
874387.0473	2456962.038	-200
872054.6306	2458873.276	-200
876637.5755	2459497.86	-102
874108.5415	2461918.874	-120
872213.9067	2462507.217	-144
874756.2815	2471637.754	-10
873562.5725	2473055.845	-10
872916.3152	2473779.567	-10
875717.1233	2469696.606	-10
873610.3074	2472296.618	-14.2
873160.1954	2469349.931	-25
871239.4503	2469937.615	-27
871219.5948	2467988.739	-34
874159.2924	2468368.009	-23
862079.2776	2481908.112	-10
864945.842	2480898.349	-10
865568.9654	2478838.019	-20
857108.363	2483503.154	-20
855546.3281	2486809.834	-5
854905.8434	2486810.934	-10
854193.2166	2485464.158	-20
853030.9657	2487353.954	-57
852664.1887	2488264.173	-142
850722.5351	2485171.818	-268
850881.801	2487234.334	-237
849898.8069	2487734.658	-75
849295.3647	2484474.313	-30.5
883173.3578	2435606.967	-50
883189.437	2436568.438	-20
881645.1385	2439329.758	-24
881247.5002	2439890.445	-26
880806.1015	2441091.668	-30
880765.0504	2439988.359	-51
880239.8365	2440226.511	-160
879173.6871	2441563.196	-264
881465.4611	2435934.487	-277
881726.0288	2437176.439	-165
883247.9424	2435750.562	-48
883621.8846	2433810.114	-76
883597.4696	2434329.141	-76
883924.7238	2434970.769	-27
882223.9965	2433928.344	-271
881163.335	2434035.81	-275
881682.6258	2434561.608	-286
880496.8426	2432993.228	-190
881574.6181	2432423.544	-288
879941.7668	2435920.051	-297
882217.8149	2433205.81	-286
882932.7548	2433789.186	-180
883000.343	2431403.978	-149
883530.9666	2431870.961	-61
879418.9158	2437256.388	-290
876228.4594	2442583.363	-390
878525.5309	2442868.104	-263
875190.9675	2445521.998	-354
879614.9393	2443212.314	-101
882143.3201	2445929.653	-10
882311.8701	2445070.357	-10
881565.1058	2447064.814	-27
881427.2837	2445746.59	-23
881177.0719	2442358.953	-22
881748.5133	2446808.535	-20
881470.6902	2445478.99	-20
880670.5311	2442412.71	-37
880394.1647	2441930.784	-75
878415.3188	2440560.381	-301
876946.9556	2453581.265	-160
876911.6045	2452289.35	-157
876654.6007	2457032.918	-124
874780.5554	2458476.975	-150
865018.4812	2474066.282	-27
861972.5572	2477265.123	-26
861276.0846	2476383.004	-28
863654.4322	2479680.421	-21
866322.0759	2474431.602	-27
867237.4914	2475604.279	-24
864777.4734	2477413.141	-25
863817.7953	2475404.043	-27
861065.055	2475396.413	-30
863654.9347	2473344.958	-30
864200.5791	2473120.149	-32
865815.2453	2472352.9	-31
859790.0098	2476369.928	-31
858792.5892	2475964.054	-33
867047.0354	2471682.346	-31
864074.4735	2471163.65	-34
861530.559	2472806.99	-33
860843.2104	2473846.945	-33
859926.7002	2474182.049	-34
856143.8921	2478115.982	-38
856517.0566	2476836.371	-41
861730.1472	2479047.887	-24
858693.1095	2474479.067	-38
855667.0437	2478780.798	-37
856483.1046	2475054.697	-49
857464.0973	2475644.809	-40
853189.7715	2461743.476	-302
856589.7163	2463536.56	-222
860204.0406	2464530.326	-150
860273.7901	2463106.451	-218
854269.3552	2467231.968	-131
853540.471	2460365.625	-341
861948.1434	2459792.623	-370
850870.8107	2460490.201	-353
858049.5632	2456206.387	-414
856983.4177	2457673.45	-380
855700.602	2454621.838	-404
860764.9514	2461601.109	-311
724164.7411	2810946.729	-1
726102.9763	2812250.694	-7
722218.0081	2814625.948	-0.7
722403.5642	2813547.475	-1.7
725357.85	2810246.514	-2
725724.3225	2810542.837	-2
728813.5077	2809262.855	-4.2
921567.6262	2791245.377	-56
923283.318	2794865.691	-71
926993.5101	2795585.025	-71
916636.3294	2788564.613	-58
924940.7215	2798852.989	-70
913249.8637	2797002.349	-85
928126.1014	2800974.958	-71
914509.1285	2798584.206	-83
925615.5247	2800705.343	-71
931938.9437	2801413.503	-70
930285.1063	2791222.382	-31
918273.7247	2795134.109	-70
917742.1531	2796153.684	-72
927967.1785	2793364.73	-51
933221.4665	2788498.788	-21
920903.8623	2797773.939	-71
956803.6375	2806883.325	-20
959713.8103	2808389.02	-22
956111.5607	2810001.198	-63
954450.8737	2805156.526	-10.4
954847.7795	2807073.682	-35
956005.9922	2812903.604	-87
951450.8477	2811895.909	-61
957739.4205	2815004.533	-101
948638.9722	2810439.894	-57
949511.0021	2806772.728	-54
946523.1211	2806040.242	-60
948964.1906	2804191.223	-44
949688.151	2813826.145	-73
946689.7249	2814056.67	-85
940816.1726	2810777.617	-77
942192.0731	2811311.836	-72
945532.9086	2812794.181	-71
937363.7398	2814721.78	-84
936024.3162	2809364.819	-81
928339.6727	2815197.65	-77
928829.1443	2805482.82	-77
924845.6606	2803832.594	-70
931169.7143	2809517.62	-75
928563.4473	2806262.55	-71
935975.4535	2804438.278	-74
931111.0298	2811799.574	-75
919756.9452	2813508.584	-82
918405.1159	2810502.501	-84
926116.8894	2804363.87	-77
911639.1203	2788436.163	-70
907915.977	2790828.873	-90
912895.2388	2792995.031	-82
905181.5547	2792759.62	-92
906807.394	2798264.979	-81
908766.7395	2791876.321	-88
904926.7675	2799186.234	-88
906593.7252	2790246.676	-92
913353.1119	2790990.001	-73
910341.1302	2800878.88	-90
910358.7258	2798894.172	-87
911489.6285	2793949.867	-85
915586.0343	2792092.848	-70
940258.8709	2803851.663	-73
941422.7527	2798003.613	-44
936273.7653	2800183.99	-59
933332.1309	2802850.36	-71
937164.3068	2798461.454	-55
922068.9537	2804779.293	-80
917106.3298	2802087.84	-91
919963.6287	2798687.758	-72
925513.7962	2808310.345	-73
880284.769	2802492.543	-89
880341.9493	2808017.561	-90
871239.072	2805504.25	-78
859095.4864	2817654.224	-74
855133.9755	2808847.538	-71
850797.5679	2807941.15	-67
845199.4432	2808989.416	-61
854496.6755	2803669.281	-73
844762.0281	2803859.429	-61
834539.829	2806669.499	-55
840290.7867	2803201.295	-58
835724.2253	2804206.424	-56
827489.6606	2807791.037	-52
827713.325	2802537.227	-53
822490.1823	2807996.432	-51
830238.975	2810956.534	-53
808734.7247	2804414.585	-54
787873.0838	2802937.734	-38
794707.3345	2800346.97	-63
798353.6519	2802307.636	-61
786551.3227	2810114.239	-31
790202.5717	2806500.57	-40
793145.0607	2809557.679	-44
794742.514	2805970.398	-54
787463.515	2808317.108	-33
787000.3667	2804733.793	-32
798371.9802	2813284.478	-54
794758.5229	2813496.365	-44
790783.5566	2812396.237	-37
788643.1045	2813601.103	-32
789509.8861	2814649.078	-33
793383.6606	2813439.874	-41
796295.0219	2811915.969	-50
798363.7743	2815931.523	-52
897325.9155	2789033.843	-83
898343.5722	2799401.181	-90
890162.2718	2797855.25	-94
934645.6775	2788587.691	-20
940692.9502	2792208.639	-20
942293.3342	2793593.131	-20
938597.3272	2788307.637	-10
939448.4528	2789145.416	-10
940049.3348	2789537.615	-10
941136.1409	2789636.331	-10
941630.5414	2789708.086	-10
942041.5217	2789833.815	-10
938567.6926	2790241.911	-20
