628790.2414	2699397.327	3.4	0
628143.5722	2697529.342	18	0
629443.8688	2690027.995	14.4	0
633554.6111	2692201.628	-15.1	0
631586.2243	2689573.266	-14.1	0
635566.6817	2690204.057	-19	0
641999.7195	2695566.332	-22.7	0
624008.8544	2698177.734	-8.1	0
637850.4813	2690133.889	-23	0
636437.8918	2686297.57	-25.5	0
626229.381	2696382.881	-11.8	0
622835.3375	2695140.246	-17.2	0
625501.0285	2694109.251	-15.1	0
632196.104	2693590.445	-14.7	0
624551.3134	2692255.51	-16.3	0
624063.086	2690089.557	-16.5	0
628253.9568	2686172.693	-17.7	0
622336.1252	2697007.579	-15.7	0
619704.0473	2699858.363	-5	0
622612.7982	2701280.588	-2.4	0
627193.4279	2700866.53	-6.8	0
622653.3897	2692179.575	-16.9	0
624441.1075	2691056.4	-16.2	0
626530.103	2686587.132	-17.2	0
626324.0032	2689090.71	-15.2	0
628335.5939	2688407.31	-15.4	0
622521.2639	2688055.076	-17	0
620263.1436	2694349.232	-18	0
624629.8865	2686846.618	-16.4	0
620572.4375	2692286.247	-20.2	0
619818.8375	2696321.842	-14.2	0
617038.7556	2695780.7	-16.7	0
621942.1608	2690017.851	-18.5	0
633385.3292	2690182.952	-16.5	0
639183.8997	2698240.15	-16	0
639149.4789	2701719.787	-8.8	0
638130.6056	2692377.146	-21.5	0
640145.8677	2691342.481	-25	0
640313.4275	2693927.754	-23	0
616045.6081	2702037.317	-3.3	0
634459.0028	2685060.12	-21.6	0
638860.6484	2685992.361	-25.1	0
637519.1327	2681036.245	-29.8	0
640405.0289	2679013.141	-18.8	0
641741.01	2684447.344	-27.4	0
641882.2052	2680906.203	-28.4	0
642445.6383	2678967.567	-29.8	0
641929.9657	2676128.374	-29	0
632094.2916	2683793.874	-22	0
627754.7662	2677647.74	-22.9	0
628440.7243	2676662.731	-24.8	0
634800.6079	2681255.973	-24.4	0
634570.2137	2679039.349	-28.3	0
635665.6181	2677763.293	-29.8	0
639247.8241	2677418.345	-29.1	0
634208.8968	2676336.437	-28.5	0
638088.7706	2685189.31	-26.3	0
637441.7141	2678138.904	-30.1	0
638101.9097	2687804.639	-27.6	0
636743.2866	2694153.596	-16.4	0
635529.0631	2692322.839	-16.3	0
633493.1719	2687927.254	-17.5	0
630143.6123	2681674.589	-22.6	0
637685.3576	2684223.929	-28.7	0
643629.278	2689186.581	-26.8	0
644470.9201	2687217.885	-22.7	0
643787.5129	2683124.58	-28.2	0
643750.9367	2681964.218	-29.3	0
644318.1698	2680862.718	-30.2	0
631088.9845	2675721.111	-29.2	0
632646.9702	2677218.43	-29.2	0
623582.6232	2676807.156	-19.7	0
626105.7606	2678708.789	-16.3	0
631809.9105	2686721.975	-18.6	0
626060.0536	2683848.876	-14.8	0
631352.4601	2668238.02	-25.9	0
625240.9772	2675326.888	-24.8	0
629955.8709	2678084.472	-23.6	0
632965.2703	2674316.202	-22.5	0
622610.4952	2678604.355	-17.1	0
615614.8501	2676647.704	-23.7	0
609954.969	2672605.569	-16.5	0
617344.4815	2675216.276	-16.8	0
619103.3286	2675420.701	-14.4	0
618986.9967	2677760.554	-14.8	0
616806.9	2677067.625	-22.7	0
614483.5754	2674918.801	-22.7	0
612874.7831	2677731.741	-23.3	0
611973.5349	2676733.467	-15.3	0
608220.815	2671643.33	-14.5	0
616498.978	2672151.52	-10.3	0
614790.8109	2670408.417	-10.1	0
609014.6558	2669055.603	-17	0
608829.0104	2668020.891	-15.7	0
608177.0907	2674848.327	-16.7	0
618039.0731	2673113.186	-12.5	0
619219.9296	2670740.038	-25.7	0
605663.9034	2666774.016	-11.1	0
602812.656	2672931.746	-13.7	0
604979.2052	2678240.539	-7.8	0
607898.7863	2680919.496	-5	0
607400.9398	2677710.372	-12.7	0
614774.0284	2677283.023	-24.6	0
616919.1983	2679873.311	-23.1	0
629718.6591	2694447.894	-15.8	0
626481.1842	2691881.147	-14.3	0
628376.4236	2692656.166	-13.9	0
632177.0327	2696283.15	-11.4	0
635769.2202	2696284.352	-15.4	0
637980.4011	2695514.936	-18	0
640179.7153	2695965.044	-20.5	0
645706.0072	2696910.887	-27.6	0
645226.6182	2691870.421	-28.3	0
646949.3484	2691150.056	-29.8	0
641778.0019	2700878.09	-12.3	0
643984.3369	2696814.092	-24.9	0
642190.0141	2697534.051	-21.2	0
645870.1197	2694276.179	-29.4	0
646781.2785	2692598.33	-27.6	0
641089.2701	2686601.847	-25.3	0
642145.7152	2687287.324	-29.3	0
643226.3983	2685568.783	-28.2	0
645571.1109	2685065.43	-26.1	0
641935.4171	2693080.25	-26.4	0
643016.9619	2691235.171	-28.5	0
641515.4133	2688710.248	-22.1	0
639852.1185	2685010.766	-28.4	0
637002.0716	2680063.626	-30.4	0
639022.5999	2682107.948	-30.1	0
637357.7513	2682281.528	-28.4	0
641554.8657	2682952.905	-26.5	0
647241.9624	2686754.532	-17	0
646395.3837	2680978.677	-33.7	0
648446.0619	2681395.453	-37.3	0
647206.0021	2678581.38	-39.4	0
618456.519	2682778.85	-20.5	0
621199.4948	2682584.915	-15.2	0
620928.8545	2685075.941	-19	0
623311.51	2682372.981	-17.9	0
621367.7227	2680016.659	-18.8	0
628584.9794	2683935.65	-19.5	0
628120.0952	2681888.401	-21.2	0
625514.3046	2681224.825	-15.2	0
630906.9344	2679724.821	-25	0
630260.2865	2688146.474	-16.8	0
610610.4115	2679682.23	-16.3	0
610240.1239	2680667.849	-18.3	0
615529.7998	2681204.212	-28.3	0
618916.4696	2680915.881	-23.8	0
619765.6133	2680553.975	-16.8	0
619516.3627	2678574.811	-14.1	0
621126.1606	2676927.718	-19.8	0
614222.2054	2680283.307	-14.4	0
617453.4155	2682439.638	-30.8	0
619608.681	2683680.812	-25.1	0
616035.5304	2683208.232	-25.6	0
619774.0032	2686993.155	-26.8	0
636365.2286	2672518.555	-28.2	0
636087.447	2674120.04	-21.5	0
637111.7098	2671365.784	-23.9	0
636882.2205	2669064.788	-30.5	0
632139.2606	2673301.18	-30.7	0
638986.9839	2673556.241	-21.4	0
627016.4076	2669351.734	-29.4	0
639042.3445	2667387.957	-44.6	0
637878.006	2662664.412	-46	0
635964.3693	2663436.935	-43.7	0
637236.4685	2666447.79	-43.9	0
639237.9687	2665939.934	-43.7	0
638072.9174	2664412.787	-45.4	0
636592.1414	2664233.784	-44.3	0
641282.8012	2669624.44	-44.4	0
644193.559	2666990.936	-35.8	0
644468.8102	2666097.38	-31.8	0
642919.599	2663709.133	-31.4	0
642877.9991	2661817.196	-26.5	0
638491.2982	2661701.532	-44	0
640596.5665	2662776.577	-34.8	0
635235.8821	2661380.388	-43.5	0
637470.4987	2660610.837	-44.5	0
635229.1179	2659535.001	-45.4	0
2661550.638	0	-633152.3515	
641330.2086	2664961.359	-42.6	0
630657.715	2665386.931	-25.4	0
630088.2154	2664142.745	-22.6	0
641409.6487	2667202.967	-47.1	0
643548.8805	2668647.933	-38	0
2665318.052	0	-642735.2864	
635344.6903	2670326.028	-22.9	0
639823.8766	2672451.938	-27.4	0
620183.7019	2673448.75	-22.9	0
625207.1834	2676486.712	-20.2	0
600601.1453	2666304.72	-15.2	0
602384.0785	2663997.821	-16.8	0
602375.363	2661836.336	-10.2	0
604480.3023	2661957.002	-16.6	0
605747.4788	2664075.047	-15.5	0
606094.7419	2659675.656	-25.5	0
604629.6528	2658083.336	-25.8	0
603427.9338	2660209.665	-21.7	0
597273.6486	2661036.318	-18.8	0
598325.2326	2662994.036	-18.6	0
600231.0466	2660424.135	-18.8	0
603105.5134	2667983.215	-18	0
597924.6379	2664941.814	-13.5	0
594725.7911	2665631.904	-11.7	0
596242.8592	2663138.008	-11.3	0
599119.8908	2667058.755	-17	0
600660.1519	2668229.33	-17.1	0
601017.8853	2665543.26	-17.5	0
605145.0141	2670291.363	-11	0
605529.8477	2673852.722	-10.5	0
606011.8337	2667582.78	-16	0
597042.3044	2667650.715	-14.2	0
599234.3538	2669732.327	-14.7	0
600691.9836	2671598.222	-15.3	0
597390.1556	2670563.078	-7	0
595485.6001	2668884.325	-5.5	0
593426.9655	2664062.938	-12.8	0
594455.2524	2660801.286	-21.2	0
600574.9279	2663499.966	-17.6	0
595398.5744	2660181.541	-18.8	0
597830.4313	2658550.569	-15	0
599799.2375	2658300.575	-21.1	0
603206.5961	2655820.657	-24.6	0
595822.3419	2655637.593	-22.4	0
593187.1907	2655916.743	-23.6	0
595287.7625	2657964.247	-18.1	0
597543.1617	2660071.625	-13.6	0
593353.89	2663054.233	-10.1	0
604308.7909	2665490.024	-18.2	0
610633.6405	2667461.9	-10.8	0
612709.5804	2668084.431	-12.6	0
611595.4744	2671317.922	-15.8	0
613979.3296	2672681.17	-21.2	0
612143.2561	2663177.059	-27.4	0
611723.6916	2661117.726	-17.4	0
616792.5493	2665334.691	-13.6	0
616729.8025	2661907.37	-33	0
618564.5455	2661034.705	-28.7	0
620463.1473	2665542.383	-31.2	0
620609.5564	2668833.414	-23.8	0
620359.0325	2661239.49	-26.5	0
617675.4047	2658620.691	-26	0
619443.2532	2657412.223	-22.6	0
624538.6974	2666766.238	-29.5	0
622889.4676	2667200.068	-29.2	0
624013.8329	2668686.009	-31.5	0
623590.9523	2675588.91	-18.3	0
634694.4252	2672887.724	-26.8	0
634422.1015	2670987.081	-28.4	0
640405.9335	2674566.88	-26	0
650333.8703	2694725.493	-30.3	0
650219.7341	2692741.665	-30.6	0
649506.2072	2690772.579	-22.6	0
649881.3668	2688203.396	-23.2	0
650121.6792	2689239.428	-28	0
651525.6433	2689908.252	-27.2	0
651347.803	2686658.243	-33.9	0
650014.7776	2682910.876	-38.5	0
651128.678	2683639.821	-34.7	0
651048.8357	2680243.257	-11.8	0
652001.6125	2684670.328	-38.4	0
649449.266	2679173.781	-41.6	0
650671.2612	2675100.278	-42.7	0
649213.4935	2673417.396	-43.5	0
646489.6137	2682451.563	-31.2	0
649337.4404	2684623.366	-22.8	0
649726.8274	2686657.521	-29.2	0
651088.5258	2681346.409	-42.3	0
631066.198	2669878.31	-21.1	0
631654.0715	2671191.271	-27.9	0
629640.5944	2668346.846	-22.4	0
644737.9192	2677732.434	-35.5	0
645448.5772	2676816.975	-38.8	0
648386.359	2675713.716	-37.7	0
644830.5909	2673383.434	-44.7	0
644707.4433	2671220.4	-44.9	0
648209.3525	2671810.053	-44.1	0
651222.4754	2672843.57	-38.7	0
650763.268	2670518.678	-35.6	0
650097.266	2669430.731	-30.4	0
651597.0313	2669472.971	-49	0
641419.7937	2674001.601	-33.7	0
650422.6949	2677554.237	-40.3	0
646191.0835	2674577.111	-43.8	0
643480.5571	2670529.138	-35.9	0
645485.9493	2668822.691	-33.1	0
628222.5862	2663353.069	-21.2	0
624750.0626	2657707.493	-18	0
639003.523	2658629.616	-27.3	0
645668.5999	2679712.885	-33.8	0
615839.6943	2656160.19	-23.8	0
614967.7264	2658599.347	-31.7	0
617399.4326	2659673.483	-28.8	0
616546.8222	2657346.843	-24.8	0
617876.9697	2655776.133	-23.8	0
611895.6881	2656383.218	-30	0
606834.841	2657194.667	-18.9	0
600616.3199	2657465.935	-18.1	0
612745.0971	2665049.008	-27.6	0
617100.6517	2667324.685	-27.2	0
620981.0036	2671271.627	-23.9	0
595802.8129	2671023.29	-2.3	0
602299.9345	2675734.052	-9.3	0
608870.2861	2660810.663	-26.2	0
608531.1902	2664023.92	-19.4	0
607750.2211	2664887.864	-13.2	0
609147.6961	2683115.792	-7.6	0
612559.7043	2679550.905	-24.5	0
614042.7521	2679266.194	-24.9	0
610637.211	2678069.509	-20.9	0
611418.5619	2674780.62	-14.2	0
606434.2868	2676067.064	-12.7	0
603765.8156	2674327.097	-17.2	0
612088.2825	2680677.165	-22	0
613942.4864	2683072.943	-17.1	0
610230.0509	2663011.763	-24.8	0
613131.4509	2662455.456	-18.2	0
616620.0182	2670147.706	-25.1	0
607798.8441	2670370.543	-11.5	0
612807.1285	2658020.256	-31.4	0
615133.7217	2660753.832	-32.7	0
617820.2662	2663754.405	-32.7	0
609274.5221	2656232.066	-29.6	0
597972.572	2657457.705	-21.2	0
598817.0535	2655776.574	-24.7	0
611090.4877	2659248.58	-28	0
611413.5979	2673667.049	-22.8	0
626501.2504	2665977.83	-23.5	0
628559.1463	2665342.461	-21.8	0
631358.1319	2666253.692	-20.8	0
633045.0211	2670128.686	-14.5	0
632366.0332	2672378.932	-27	0
629912.4172	2671934.539	-27.5	0
634951.6987	2668271.458	-25.4	0
644526.1219	2659297.021	-46.2	0
651493.9045	2665447.903	-37.7	0
650360.2789	2662773.197	-47.5	0
649855.1958	2661304.721	-37.3	0
648521.021	2661554.434	-48.2	0
648904.9399	2664207.944	-46.7	0
651747.6216	2663209.68	-33.6	0
652241.375	2661171.744	-33.5	0
645084.2563	2660080.175	-51	0
644106.6262	2656704.889	-49.5	0
642488.2045	2656286.675	-48	0
652100.8182	2666755.114	-35.6	0
640645.2701	2661502.748	-27.5	0
639554.8851	2664824.261	-45.8	0
641032.2534	2663747.369	-32.8	0
649142.2311	2668302.952	-23.1	0
647305.9859	2668964.036	-44.5	0
647294.7502	2667943.658	-39	0
645456.6908	2675242.532	-42	0
640901.4568	2680501.681	-29.1	0
639286.0547	2679650.552	-29.7	0
638256.1099	2676159.743	-20.7	0
632877.8135	2681436.215	-24.6	0
629646.1476	2706797.022	-6.2	0
630439.6769	2710245.295	-5	0
634123.5057	2710246.675	-3.4	0
634038.8609	2712701.321	-0.4	0
634904.4432	2713277.57	-5.7	0
632497.7225	2714056.349	-1.9	0
629073.9483	2709163.626	-6.8	0
626267.5648	2710156.957	-1.9	0
624857.6056	2708858.177	-2	0
621484.6258	2705013.359	-0.9	0
623346.1483	2707200.98	-3.1	0
619052.0482	2705176.249	-0.3	0
619044.1147	2706111.534	-1.6	0
628806.8471	2703575.337	-3.5	0
627800.2299	2711667.241	-2.8	0
624916.181	2701003.842	-3.6	0
618609.1606	2702921.067	-4.9	0
617723.3206	2703214.137	-3.8	0
620664.4702	2698167.002	-16.8	0
614048.0842	2699018.006	-10.2	0
612125.8472	2701655.118	-13.2	0
618461.0413	2694442.385	-23.3	0
618218.8864	2697398.083	-9.7	0
615082.0926	2692060.721	-3.5	0
619573.9889	2690453.121	-25.8	0
614769.3396	2699790.693	-13.1	0
615635.7016	2700122.029	-3.8	0
613043.4857	2698258.334	-13.7	0
611330.8971	2701029.862	-14.4	0
609233.3379	2701095.788	-10.9	0
608148.3154	2702899.688	-17.6	0
610710.4602	2697433.324	-5.1	0
648197.2754	2722781.438	-1.5	0
649150.2238	2722032.283	-2.6	0
650093.2852	2722211.144	-2.7	0
651107.8893	2721125.3	-3.8	0
649385.8362	2716234.453	-5.1	0
651104.5389	2723213.415	-2.4	0
649186.8794	2720408.574	-0.7	0
647223.62	2718194.147	-2.4	0
646674.6363	2715362.057	-4.7	0
649620.6096	2714127.753	-4.7	0
651011.0891	2715808.984	-2.4	0
649016.0014	2712919.053	-11.8	0
645258.625	2717941.556	-2.1	0
642478.1928	2720085.34	-2.7	0
640274.1465	2720611.381	-0.3	0
640173.4816	2719112.882	-1.8	0
643102.2003	2717539.642	-0.7	0
644319.2485	2715506.274	-5.7	0
647525.1591	2711553.379	-4.7	0
640564.1287	2712873.783	-2.9	0
638346.6401	2712704.046	-6.6	0
647267.2855	2724788.513	-1.1	0
631210.3239	2711940.649	-3.1	0
629987.7992	2713708.74	-1.5	0
629486.9055	2712451.858	-1.2	0
636087.1741	2708968.562	-3.3	0
639335.6043	2711288.943	-4.2	0
630582.9398	2715614.33	-0.3	0
639401.3085	2715432.234	-3.4	0
628011.9763	2714633.928	-0.7	0
647075.2801	2701498.339	-9.2	0
651117.0414	2710093.35	-5.4	0
650634.84	2707253.914	-4.4	0
649252.6501	2708161.908	-5.7	0
649305.397	2703202.593	-9.2	0
650008.9004	2705138.014	-6.5	0
650640.0674	2701140.609	-23	0
651367.588	2699967.215	-28.8	0
649557.4781	2699441.656	-28.7	0
648010.2482	2693071.053	-30.5	0
651590.5189	2697090.137	-31.2	0
635180.4378	2687975.784	-21.5	0
640048.7909	2689262.236	-28.2	0
623880.0486	2713528.997	-15	0
625601.5108	2713059.277	-4	0
623904.6879	2710745.357	-12.4	0
623696.3895	2708107.298	-9.9	0
621824.0641	2709219.197	-1.2	0
608882.5867	2716757.345	-0.3	0
607351.8995	2715137.482	-4	0
608919.8449	2715070.528	-0.9	0
607594.4298	2708680.951	-2.3	0
623609.7535	2699488.799	-5.4	0
614447.7906	2692850.95	-5.5	0
614435.1792	2691427.367	-5.8	0
618466.8687	2685456.902	-38.5	0
620347.149	2688846.991	-24.6	0
616829.5656	2684731.552	-23.2	0
616962.7798	2680889.263	-14.8	0
609499.1805	2676981.123	-11.4	0
616134.5027	2675017.254	-20.1	0
601399.4353	2670953.007	-9.3	0
603241.6476	2670532.014	-20.1	0
607956.5317	2666186.676	-11.3	0
591318.9356	2664242.607	-2.3	0
593101.8911	2668278.955	-5.5	0
593167.2182	2666532.99	-10.5	0
591867.313	2657709.369	-12.3	0
592048.4433	2660132.165	-4	0
593509.1894	2658856.685	-26.2	0
592642.8397	2657121.313	-28.7	0
588302.8926	2657098.234	-7.4	0
585521.813	2656554.211	-4.8	0
587290.4594	2656367.197	-11.9	0
599696.6667	2659420.067	-19.5	0
623207.3148	2684420.337	-8.8	0
632096.6814	2679358.997	-23.9	0
635779.4134	2683519.467	-26	0
628782.8296	2679767.364	-18.9	0
646427.6388	2688331.27	-24.3	0
646265.7163	2689384.149	-18.4	0
619441.4189	2662842.84	-30.8	0
617204.1346	2671574.021	-18.8	0
630517.5369	2704464.757	-10.4	0
630630.0078	2703881.183	-5.1	0
630383.2698	2700072.553	-9.4	0
631712.8836	2698334.459	-14.4	0
631722.1326	2699410.141	-5.8	0
640534.6751	2703816.01	-6.4	0
636736.2881	2701629.911	-8.5	0
636947.9931	2699190.058	-6.7	0
649471.4471	2695157.303	-31.1	0
647539.8394	2697404.283	-27.4	0
648638.2375	2696413.183	-18.8	0
649469.8255	2697357.435	-30.6	0
648035.9235	2688807.94	-19.6	0
649561.4074	2667480.842	-50	0
649351.6139	2664945.257	-51.3	0
643709.9641	2658653.605	-50.2	0
646512.0881	2663095.179	-50.2	0
641333.2175	2660877.398	-38	0
649035.4794	2659489.029	-37.8	0
651887.6275	2659055.017	-38.4	0
650925.1146	2656640.491	-45.2	0
648854.6433	2656386.836	-45	0
646253.7234	2656845.129	-45.1	0
652359.3762	2656592.398	-39.1	0
640077.1475	2656467.061	-45.3	0
641511.9425	2658315.979	-43.5	0
647022.6477	2659320.575	-47	0
647251.1049	2657825.504	-37.8	0
650106.294	2658972.953	-45.4	0
647517.9919	2665705.721	-28.4	0
649596.1656	2670322.253	-40.2	0
647894.0153	2670371.296	-37.8	0
645954.11	2666693.172	-43.4	0
647456.451	2672655.193	-32.1	0
641181.6469	2671711.486	-22.4	0
643134.3309	2674376.229	-40.3	0
643398.3489	2677068.183	-28.9	0
635473.6432	2674887.099	-32	0
611172.4812	2670554.055	-20.1	0
605934.7024	2669649.549	-23.3	0
617196.2737	2678742.456	-8	0
614232.0281	2683961.183	-10.1	0
615370.9842	2688031.052	-12.2	0
615733.896	2686199.312	-3.9	0
619276.6475	2687894.751	-10.1	0
617251.7646	2691983.532	-11.3	0
613353.0432	2694408.501	-11.1	0
612274.3728	2696424.371	-6.1	0
621578.6651	2698758.144	-11.1	0
607173.2691	2701833.329	-2	0
605558.5894	2703227.171	-8.9	0
603464.7197	2702436.605	-11.1	0
601560.1399	2701473.752	-2.1	0
599395.8426	2704431.675	-2.1	0
599620.8521	2701285.902	-2.1	0
597295.5831	2702455.803	-4.6	0
599536.1226	2703025.051	-6.4	0
612856.1591	2702358.424	-6.3	0
611429.7779	2699605.521	-11.4	0
610954.4654	2698652.78	-7.5	0
609427.4257	2698809.533	-2.8	0
620101.1238	2703515.941	-13.2	0
621223.29	2706381.765	-7.3	0
621232.511	2714769.164	-8.2	0
622910.6639	2715904.213	-2.2	0
622897.0327	2714025.781	-9.7	0
621947.7654	2713984.519	-12.3	0
619835.9124	2715926.938	-10	0
606038.0634	2706101.534	-14	0
607815.727	2704385.166	-2.2	0
610643.3448	2703055.756	-10	0
594289.0647	2705487.471	-2.7	0
593507.9173	2703215.332	-2.1	0
594806.3123	2700350.853	-2.1	0
592998.8955	2707192.229	-3.5	0
595439.1684	2706681.429	-2.1	0
591950.1771	2701544.416	-2	0
634036.5397	2694530.319	-13.9	0
630676.641	2692221.073	-14.2	0
628957.6212	2662565.523	-23.8	0
624304.6527	2659571.898	-23.3	0
622450.8316	2658923.263	-23.1	0
622193.4683	2659574.802	-20.1	0
620240.6016	2659178.671	-14.2	0
626911.545	2660459.419	-21.1	0
628982.9733	2658411.238	-41.5	0
631614.3606	2662948.259	-24	0
631800.019	2658363.168	-46.8	0
631331.8398	2659227.397	-47.2	0
630798.0807	2657201.509	-45.9	0
633673.1084	2658213.507	-44.7	0
635896.4544	2657545.067	-37.7	0
637359.6093	2656478.188	-24	0
634068.8391	2656183.404	-38	0
636915.3707	2659881.208	-40.7	0
634677.7501	2666244.438	-34.5	0
634029.79	2663398.857	-44.3	0
633436.1347	2664562.494	-28	0
638531.1099	2669071.519	-38.6	0
636421.6271	2667005.47	-38.5	0
636065.3718	2669849.175	-28	0
632859.4267	2667014.026	-23.8	0
640263.6924	2667582.34	-36	0
643361.4058	2669569.483	-46.8	0
637918.7872	2671111.564	-32.9	0
645660.2179	2664625.868	-28.3	0
644805.6602	2662012.522	-40.5	0
631353.3637	2660970.48	-42.6	0
627787.7081	2656868.043	-38	0
626948.5915	2657556.508	-22.4	0
624827.09	2656483.435	-19.8	0
626007.5967	2663221.048	-15.8	0
623546.0074	2661259.406	-19.2	0
625925.701	2668112.926	-26.3	0
626563.5966	2659472.168	-19	0
624259.1308	2663880.57	-20.7	0
624755.3135	2662493.045	-21.3	0
629510.3895	2661312.183	-19.4	0
617735.7057	2656613.201	-18.2	0
633969.9759	2669008.734	-26.9	0
628613.1164	2667432.853	-18.5	0
622286.2026	2666289.823	-24.5	0
622371.2213	2663534.86	-27.5	0
628647.9065	2670150.258	-21.9	0
621385.9797	2668357.27	-28	0
622940.1194	2656757.688	-18.8	0
613690.0792	2660413.819	-30.2	0
606902.8197	2656244.729	-23	0
602789.9154	2657100.285	-28.2	0
608009.7774	2662954.936	-21	0
606852.893	2662303.075	-16	0
600606.6298	2662531.871	-16.4	0
606114.8329	2673129.573	-21.3	0
601618.8331	2668540.476	-15.9	0
614741.1102	2673405.972	-20.7	0
615051.2508	2663338.804	-22	0
615304.9699	2664289.807	-15.7	0
618873.9577	2669322.265	-7.5	0
616042.1706	2669310.576	-28.4	0
620067.2802	2674495.252	-15.2	0
640027.964	2675549.98	-31.5	0
647176.9069	2698270.587	-16.9	0
645460.9905	2699813.511	-9.8	0
617763.6468	2691000.267	-20.7	0
616066.0071	2688981.944	-7	0
612481.1215	2681780.343	-11.4	0
604800.6661	2679308.6	-6.6	0
