621718.1951	2687356.285	-15.1
629782.8067	2689124.047	-12.7
633363.386	2689137.994	-13.8
623135.5364	2689190.41	-14.4
620343.4319	2690147.726	-20.6
618860.6881	2690159.523	-26.4
630741.5833	2690695.799	-11.4
632324.956	2690994.693	-11.9
643780.7239	2691176.612	-25.6
620695.7775	2691548.064	-18.2
629751.8107	2692055.6	-11.9
621709.5277	2692260.965	-15
631739.0665	2692445.393	-11.6
622760.4212	2690896.133	-14.8
620847.699	2678977.398	-16.4
622243.3721	2680485.293	-16.4
622532.6883	2678969.5	-12.8
622091.2219	2677514.292	-16.4
623238.5183	2680726.456	-16.4
622581.9935	2675845.512	-18.2
622287.9387	2674483.709	-20.1
623456.7211	2677590.087	-20.1
626801.6832	2678028.898	-20
626168.5329	2672575.975	-27
627482.2889	2672243.224	-25
624077.9255	2672167.406	-25
623881.5194	2673601.4	-22
633738.6904	2685512.633	-17
631356.8983	2686619.184	-15.6
630815.5242	2685555.355	-16.3
629854.5799	2686281.487	-15.8
628224.0057	2681365.734	-18
634660.0413	2673026.713	-29
632083.0621	2673043.195	-27
628478.1059	2676515.236	-21
630119.7131	2668288.242	-27
629304.0291	2672822.582	-25
636236.5243	2698832.724	-11.2
637236.045	2698889.1	-13.5
637167.841	2699122.723	-4.7
638319.6022	2699165.439	-11
622762.7244	2695295.52	-14.8
619916.8184	2698318.094	-16.4
622229.6137	2696876.399	-13.7
620510.2025	2697006.638	-14.6
628317.0292	2695175.579	-13.6
623753.4539	2696727.409	-13.7
616101.8287	2660999.056	-27
616861.9562	2663299.156	-25
614998.7482	2661476.204	-29.5
614090.871	2659543.925	-31
612283.5603	2666549.075	-2.8
614774.863	2668201.274	-10
616314.7061	2670062.41	-11.8
615328.6819	2669469.033	-10.9
614498.1969	2665441.384	-20.1
613567.4833	2666789.972	-8.6
612999.2288	2667566.087	-5.8
611015.6122	2665425.062	-14.8
612781.5211	2666047.81	-7.8
614079.4083	2667471.007	-14
616732.8748	2671750.657	-11.8
613322.8239	2665982.972	-27.2
613237.1634	2665120.264	-25
612320.1246	2664485.771	-25.5
611174.4527	2663433.726	-25
611834.3	2662521.787	-23.5
613852.6625	2663914.36	-22
639279.0192	2691769.803	-20.8
641764.456	2692467.342	-24
639293.4186	2694740.938	-17.4
643791.2633	2692732.398	-24.5
640287.0271	2696542.414	-17.2
643746.6636	2695415.686	-23.5
639257.6756	2698048.817	-14
641787.36	2697755.456	-17.7
643738.3213	2698518.755	-19.1
620637.2619	2692944.765	-16.6
623785.3903	2693205.387	-14.4
628785.3973	2693322.191	-11.8
632865.0628	2693450.319	-12.3
621674.1084	2693661.856	-14.1
622772.9531	2694120.822	-14.8
618586.3825	2694302.105	-20.9
619935.2244	2694367.278	-16
629756.0188	2694907.729	-13.4
636749.2699	2695004.264	-12.7
632799.0079	2695077.081	-10.6
635740.2027	2692749.059	-13.3
620698.6211	2661067.625	-20.1
623353.5464	2660147.477	-20.1
625608.3337	2657812.593	-29
620806.4872	2662261.303	-23.5
624183.2162	2661925.097	-23.5
621136.9566	2659260.02	-22
623091.4192	2662598.958	-20.1
627087.1897	2659093.975	-23
628325.516	2657897.716	-40
627032.0466	2660722.726	-23
628093.5158	2661315.913	-21
655730.1428	2697041.473	-28.8
653785.9088	2698014.279	-28.5
656715.0842	2693860.425	-30
653844.8255	2695219.928	-28.5
654783.7568	2693148.057	-30
653762.9929	2692395.077	-29
651731.1831	2697594.331	-28.5
651779.8639	2695052.46	-28.5
649278.691	2697940.411	-18.7
649775.4515	2697300.516	-28.5
647755.7118	2697299.47	-24.5
649790.7112	2695865.158	-28.5
647721.5878	2695812.892	-28
647734.9511	2694537.688	-27.5
649756.3543	2693464.172	-27.8
647708.7783	2693161.51	-27
651689.21	2692254.921	-27.4
649823.1331	2692143.658	-26.6
647795.8807	2691820.89	-26.9
620356.655	2685254.553	-19.4
618591.4163	2688023.969	-34
619406.6047	2688003.421	-15.7
619434.4535	2686628.317	-29.4
620834.0488	2686650.35	-17.5
608909.141	2673429.215	-16.6
609588.8787	2671971.262	-10.4
609053.1113	2670947.984	-12.8
610953.1481	2673444.9	-18.2
609439.3501	2670008.952	-13.8
608402.9709	2668518.292	-9.1
611573.9097	2672020.205	-15.4
609316.1818	2668180.73	-12
609898.8616	2668667.966	-9.2
610494.7638	2669148.207	-9.2
610471.1098	2668265.86	-8
611398.1808	2669415.397	-14.8
612714.0296	2672394.977	-18.4
610754.3696	2668042.432	-11.4
612264.5107	2670386.609	-16.4
610363.1127	2666592.027	-8.4
612975.6852	2671432.777	-17
611616.636	2667992.237	-8.4
611256.7141	2666966.924	-9
610951.5123	2666217.447	-4.8
615858.737	2672907.939	-12.4
616482.3953	2672558.426	-8.2
612728.3525	2668402.442	-8.2
614331.1434	2672451.568	-16.4
610081.5015	2665808.169	-10.2
607830.0554	2669555.635	-10.6
649189.4873	2666568.973	-48
650373.9593	2665596.248	-37
651553.2691	2666656.918	-37
653209.4378	2665516.49	-33
651793.9449	2669069.745	-45
653360.8976	2667505.803	-35
650424.0373	2672794.321	-47
653443.7274	2670010.342	-39
658534.294	2669071.869	-44
660324.1006	2667559.907	-46
662215.1146	2665585.488	-38
664069.9749	2667519.138	-44
656062.9584	2670946.433	-42
656697.5875	2665914.277	-34
656648.5545	2667509.911	-43
654521.6117	2673056.711	-42
659997.1052	2671068.247	-44
623347.4365	2686410.151	-14.6
622727.0075	2684677.964	-9.1
621848.0842	2684884.59	-10.9
619567.7557	2684907.778	-23.5
621955.3156	2685517.961	-8.5
623665.7375	2685415.046	-14.2
617642.9767	2684539.379	-20
623887.4101	2670355.922	-27
626938.2158	2668301.338	-31
621802.7952	2668131.519	-34
623519.4813	2667664.506	-25
624388.9151	2665988.729	-22
624780.5662	2665027.398	-29
626921.8819	2664081.353	-20
625393.2321	2664027.18	-20
624066.5941	2663774.738	-20.1
602415.5992	2669693.63	-14.4
601878.3015	2668802.598	-13.4
601482.3067	2667610.684	-14.6
601484.0184	2657332.563	-23.5
601349.7726	2659343.272	-20.5
604430.6415	2658433.86	-24
602246.7537	2660476.377	-18.8
601419.089	2661471.045	-17
606391.4081	2660506.606	-22.5
606419.0269	2662397.065	-18.8
603824.2995	2663517.696	-16.6
602720.1496	2664232.532	-15
606546.2483	2658407.752	-22
601640.4347	2663516.226	-14.6
606825.68	2674743.246	-18.6
608133.425	2671894.184	-9.8
608097.3838	2672359.262	-14
607675.1896	2670951.822	-9.2
607183.6304	2671458.207	-11.4
618905.1186	2640491.526	-34
618796.4083	2641574.109	-26
618361.6143	2642441.126	-29.5
617302.1179	2639380.586	-35
616705.3026	2642655.691	-29
615739.1983	2640480.035	-30
615792.9992	2644430.04	-41
602357.6173	2666729.639	-15.8
603739.6858	2666487.438	-16.6
604717.2719	2666242.505	-14.8
605429.2569	2666316.862	-9.6
606993.3254	2667166.046	-19.8
608556.2368	2667343.537	-10.8
609236.1681	2666551.849	-9.2
605964.7381	2665932.541	-10.4
611162.0901	2665805.368	-7
608979.5354	2665683.837	-11.8
607649.4819	2665473.489	-13.2
606126.8788	2665452.936	-10
612123.7187	2665416.442	-19.2
601643.2924	2670404.507	-11.6
602337.1717	2671274.204	-6.2
603416.4399	2670831.856	-17.4
601708.4984	2672655.579	-9
602803.1901	2672873.758	-10.6
604664.1631	2670153.028	-10.2
604965.3356	2671342.101	-1.7
604519.9298	2671667.027	-8.8
605040.4104	2671770.437	-10.4
603715.6795	2672437.4	-16
609862.7776	2673869.345	-17.6
611794.9023	2673507.38	-12.6
611427.4125	2675155.456	-11.6
613731.6725	2673976.861	-19
613476.4525	2675404.185	-18.4
615511.8931	2678702.527	-20.5
614322.8135	2680442.693	-10
617112.3546	2676875.115	-18.6
617891.9986	2675828.177	-14.4
614680.8659	2679991.65	-13
602168.8915	2677723.746	-4.8
605158.5439	2675307.81	-15.8
604850.3891	2676457.424	-8.2
607460.3098	2675856.292	-16.6
608575.0776	2675133.384	-13.4
609870.297	2675788.378	-12.8
606328.6383	2676003.203	-9.2
607874.7671	2676790.882	-16.8
600486.4117	2672202.903	-8.8
597585.7918	2669502.219	-11.8
596577.9912	2668412.037	-10.6
598210.3582	2674434.27	-0.8
604528.7567	2679168.843	-4.7
606721.4764	2681037.408	-3.3
606982.349	2680510.332	-9
605601.4582	2678992.968	-9.4
606542.6121	2679435.678	-6
606008.1566	2678657.823	-13.6
604684.449	2677886.292	-9.6
607842.0848	2679489.165	-11.4
604735.8382	2676977.65	-11
609369.4338	2680281.773	-11.6
607236.3465	2678478.147	-10
606591.5517	2677921.806	-9.6
605908.381	2677329.639	-9.8
609142.0518	2679213.733	-7.6
608035.0947	2678281.076	-12.8
609418.7378	2678232.771	-18
606939.0658	2677359.718	-10
608078.6509	2680962.387	-3
608627.0081	2680693.424	-3.3
608194.9485	2681423.258	-9.2
610889.8895	2681556.79	-8
611923.0066	2682913.295	-1.6
612281.976	2681944.451	-7
611418.2445	2680608.462	-18.8
612634.7177	2682660.025	-9.4
615947.3322	2686181.096	-1.9
613960.4812	2685340.691	-0.7
611862.0749	2683558.532	-3.5
609434.2306	2682029.814	-7.8
616538.8633	2685842.856	-12.8
615364.9509	2687267.504	-9.2
616384.6802	2687310.369	-8.9
615043.054	2690775.341	-15.3
615301.0095	2689133.456	-6.4
614791.7365	2690109.63	-7.5
592037.9948	2658360.01	-6.4
592516.4125	2656403.228	-23
615266.227	2684308.677	-6.4
613769.0895	2684650.865	-6
615770.7566	2682822.372	-24.5
618435.8731	2686963.002	-26.4
618456.7093	2685929.837	-34
617566.9244	2686971.994	-18
617990.8736	2678598.906	-19.2
617028.1401	2678958.693	-10
616299.5003	2678641.923	-13.4
618052.1707	2677823.45	-17
618445.688	2674967.271	-12.8
618321.3541	2673427.062	-10.3
616026.3462	2688674.573	-12.6
600743.8762	2674726.279	-7.8
600613.3955	2676082.456	-1.4
597326.4356	2675639.044	-1.2
610133.8347	2658487.788	-27
612691.4596	2661486.303	-19.2
616897.3523	2674734.007	-14.2
615440.1856	2673902.244	-16.4
616962.8812	2673437.165	-11.2
613669.375	2660881.895	-28.5
617671.0123	2672825.266	-11.8
614843.1079	2658443.425	-29
604297.8883	2668686.966	-15.8
605016.5335	2667427.822	-11.2
605715.5146	2668974.754	-13
605855.7809	2669518.576	-20.5
605945.6223	2667822.939	-10.4
602563.1258	2673758.957	-13.2
602609.5693	2675066.716	-9.6
602128.0639	2675773.291	-7.8
603344.6811	2676091.9	-7
604297.0993	2674757.994	-13
602805.5577	2677040.739	-9.4
603306.305	2676900.138	-4.2
604727.066	2673619.281	-16.4
604100.7452	2675768.307	-4.2
605456.6129	2673879.673	-7.6
605663.3799	2674490.747	-14.8
604380.6183	2675419.911	-9.6
591885.9351	2661765.614	-6.4
601129.1081	2672695.14	-10.8
600935.6402	2673614.226	-11
618027.4397	2655491.956	-23
608530.4168	2657488.988	-23
611224.5019	2657912.427	-29
607714.9496	2658403.271	-17.6
608115.9411	2660519.538	-24
618579.3981	2660825.163	-29
607510.8387	2661473.87	-23.5
610346.5654	2662551.908	-25
608546.0114	2662538.119	-21
607508.9921	2663475.816	-17.8
610484.2294	2664471.448	-17.8
605386.0618	2665009.31	-11
606330.7339	2672734.078	-17.4
605329.5217	2673070.035	-7
604686.2473	2672815.349	-9
606737.4854	2671739.369	-8.4
606263.1824	2671440.13	-11.6
606613.9867	2670456.089	-16
605161.9313	2670312.172	-9.6
613472.6513	2681355.872	-9.2
612490.7954	2683778.739	-7.4
613800.0339	2682820.621	-15.6
614398.1944	2682049.711	-18.2
613201.2272	2683808.772	-3.2
615042.4095	2681867.081	-22.5
614694.8816	2683530.414	-10.4
611475.448	2677060.429	-13.6
610262.2641	2676721.863	-14.8
609596.1514	2676827.422	-2.8
611264.9021	2675672.251	-9.2
610615.7734	2676327.45	-4.5
607652.9403	2656355.371	-24.5
607094.6194	2668430.148	-13.6
607135.4165	2668951.813	-10
587580.9945	2658959.601	-0.8
588825.0859	2658241.172	-5
597482.9638	2664473.456	-12.8
592694.6731	2665303.576	-9.8
595110.3266	2663707.215	-10.8
594474.9262	2665246.125	-10.6
596283.9759	2664993.916	-12.8
596865.686	2667052.107	-12.4
593447.8306	2666709.146	-9.6
596864.87	2663427.236	-12.6
596161.9332	2662435.299	-15.2
593900.4372	2663726.66	-9
594324.0221	2662854.116	-11.8
592579.6413	2663760.73	-11.2
593745.5672	2661919.013	-13.2
593226.2356	2662665.951	-9.8
592505.6453	2662314.57	-11.4
593105.279	2660788.243	-9
592719.7369	2660970.795	-12.6
599376.4945	2657352.368	-21.5
592972.0012	2657669.395	-27
592647.1816	2659771.474	-8
594290.2236	2660424.871	-18.6
593182.2936	2659890.873	-19.4
596347.5432	2657518.813	-18.8
593974.5975	2658628.865	-24
597730.2479	2657442.742	-19.8
596925.0723	2656340.831	-21
592680.2366	2658278.725	-19.4
593002.8812	2659021.168	-28
595399.1246	2658666.768	-18.6
598379.2226	2656393.467	-22
598001.4559	2659424.687	-17.4
599589.9676	2659414.297	-19
600576.5578	2660547.916	-17.6
591211.8975	2657130.225	-14.8
593829.1412	2667921.104	-8
594616.0827	2666647.724	-10
595499.2182	2665905.525	-11.4
595906.4569	2667017.167	-11.4
596712.8644	2671149.537	-2.6
596188.5503	2670548.518	-5.6
597854.8722	2670878.927	-6.2
599246.0517	2670569.496	-7.8
596973.1084	2665901.23	-13.4
598236.8195	2666160.935	-14
599411.0236	2666861.261	-14.8
598737.892	2669704.247	-14
597789.8517	2668197.728	-12.4
596671.0223	2669079.335	-9.8
601030.2088	2668732.532	-14.2
600268.8008	2671507.406	-16
600306.6053	2670035.305	-11.6
600210.6013	2667936.069	-15.2
600657.2754	2666423.783	-12.6
599644.5537	2665586.231	-14.8
595110.5118	2669624.704	-3.4
598987.5902	2664164.597	-16.4
599468.3216	2663013.955	-15.8
597498.4214	2662208.371	-17
585303.9306	2656068.697	-5
586217.0418	2655775.126	-6.4
584971.3598	2656750.217	-6.4
585054.4251	2657320.258	-3.1
586267.8971	2656957.309	-9
587323.9731	2656565.011	-9.8
586304.9422	2657898.286	-7.2
586322.2877	2658563.492	-4.1
590929.4985	2658358.11	-2.2
590057.7528	2657094.542	-14.8
587955.8622	2658193.092	-7.4
588601.4749	2657398.721	-6.2
587127.7859	2658401.584	-3.4
590892.9748	2655618.797	-17.6
590738.1259	2657582.854	-7.8
620073.6769	2638961.279	-43
619384.5816	2641251.081	-28
619216.5776	2642604.97	-32
620366.6934	2641572.875	-32
622198.2457	2642572.923	-33
623622.4204	2643440.346	-34
621903.883	2643668.025	-29.5
620784.9273	2644399.778	-32
621094.1514	2644916.497	-27.5
625077.9113	2645135.836	-32
623149.8946	2645475.523	-26.5
621242.3973	2645929.64	-43
619061.2982	2644157.373	-27.5
618854.035	2644969.096	-40
618916.2474	2646434.477	-42
618886.8198	2653432.8	-22.5
617791.166	2681244.868	-23.5
617762.9091	2683668.289	-34
618199.6381	2652001.64	-27
618162.0435	2644192.729	-37
618305.8242	2684306.326	-19.6
625910.7528	2655461.37	-25
625664.9809	2653903.651	-41
623165.2617	2656262.53	-25
624589.6714	2652954.152	-41
624238.698	2650713.481	-44
625453.0552	2648813.779	-33
621839.9812	2654445.478	-23.5
622377.0542	2651951.165	-24
620774.642	2654342.866	-19.6
620572.718	2652948.319	-28
619800.5526	2651473.568	-24.5
621643.0972	2649464.954	-43
623364.2888	2647897.989	-39
619303.893	2647806.732	-39
626501.3819	2652856.914	-41
630839.9429	2653650.789	-35
628876.3669	2651936.818	-37
630245.0403	2651934.923	-36
635166.5833	2652978.649	-29
628095.2921	2649949.488	-36
634378.3014	2651859.04	-30.5
631905.2125	2650995.547	-23
626671.295	2648126.238	-28.5
627531.7314	2645100.255	-38
628277.2321	2643010.541	-45
626584.2936	2640884.673	-45
629777.2612	2646941.518	-37
631525.504	2648896.452	-33
631887.0294	2642986.106	-46
632413.2399	2646995.063	-46
620849.4447	2705213.151	-10.9
619256.4833	2703110.075	-4.8
621473.8648	2704514.986	-0.3
620876.2713	2701505.565	-5.9
620615.0331	2702407.885	-4
619908.3144	2701695.099	-7.5
619870.7135	2699681.774	-3
619190.5426	2696770.224	-10
618488.2592	2695727.613	-16.3
624730.575	2697610.376	-7.7
624926.1836	2700940.653	-1.8
625781.8251	2699378.417	-5.2
625251.591	2700042.016	-6.4
624265.8045	2699932.876	-5.2
618468.1771	2701246.874	-6.8
631249.6738	2695313.16	-11.2
631795.7097	2697132.056	-10.4
630908.6719	2696310.239	-8.7
632732.4455	2698588.282	-8.1
630287.267	2696153.327	-10.5
631731.9378	2698310.101	-12.4
630238.1362	2697846.876	-7.5
627251.5348	2696330.502	-11.3
626203.0991	2696165.867	-9.8
628297.9507	2697604.901	-16
626265.9241	2698322.901	-6.1
629258.1247	2698530.591	-5.3
627228.3312	2698898.525	-6.2
621778.7736	2703374.029	-3.7
621761.4865	2695761.595	-14.4
620221.1704	2703764.126	-12.5
630656.6689	2699853.873	-7.4
630762.4901	2699162.161	-11.3
630943.2234	2700011.702	-1.9
630308.3267	2702313.829	-2.9
629772.9236	2702425.484	-17.4
619381.8801	2699446.393	-29
619369.5368	2700303.219	-12.6
628240.8352	2698864.107	-22
629026.5159	2699233.353	-1.4
629721.5177	2698984.169	-2.3
628788.5494	2700189.563	-14.7
629793.4331	2699543.654	-10.6
628293.1451	2701245.785	-43
629696.956	2700547.79	-7.9
629179.7771	2701097.731	-3.1
628538.4784	2702251.896	-19.3
628808.3847	2701788.943	-6.6
626760.4063	2700064.66	-5.2
627235.9335	2700749.419	-4.7
626471.3201	2700973.731	-5.5
627469.2952	2701295.072	-5
622329.7862	2701337.639	-10.9
623069.4781	2701979.87	-1.6
621700.943	2700535.136	-12.6
627749.3502	2699824.127	-14
625750.2942	2697344.565	-7.9
624255.1236	2694705.994	-13.6
625259.5599	2693669.897	-13
626273.6228	2692594.31	-12.2
624761.8437	2691897.974	-13.3
626276.8696	2691097.621	-12.6
624322.9694	2690458.218	-14.3
627721.7644	2688756.128	-13.5
624238.0541	2698136.492	-6.1
622875.6229	2697936.893	-13
622493.2936	2700261.12	-9.8
623079.8778	2700328.094	-2.8
623228.9039	2698944.082	-8.9
623756.2904	2699405.083	-3.4
631239.6066	2702917.696	-0.3
630723.6871	2703443.162	-8
615876.3921	2664847.639	-31
616443.9833	2650548.438	-29
616626.0392	2649181.143	-25
616632.8817	2684165.545	-27
616802.9583	2657574.308	-23.5
616894.4155	2647715.692	-22
616886.5847	2653929.144	-23
616929.4036	2682311.012	-25
617118.4845	2646448.236	-36
617020.3764	2679900.071	-19.2
617170.302	2656933.45	-20
617560.1854	2653421.868	-19.8
617556.6911	2656453.455	-21
617625.5574	2648918.575	-27
617692.5022	2693583.425	-18.8
617367.0999	2696975.024	-18.2
617305.9282	2693587.307	-39
618101.3632	2691524.095	-19.4
617741.0495	2688734.418	-24.1
616571.4965	2689519.374	-9.1
616718.8604	2692194.46	-3.3
617373.4771	2690099.394	-17.1
616055.802	2695706.352	-22.4
615936.7062	2694645.287	-11.2
617087.2318	2695732.133	-14.5
616566.4117	2693329.571	-9
613634.8488	2692507.162	-19.3
613239.5808	2694980.459	-8.5
612791.4543	2693553.532	-8.1
613895.275	2695562.941	-2
614085.7285	2695344.363	-10.6
614874.8923	2693607.879	-6.5
614478.1718	2694611.046	-4.5
612231.2794	2694974.522	-20.7
612508.7737	2695667.552	-4.9
613163.3545	2694240.294	-12.7
615551.8455	2699154.904	-13.5
615637.4229	2696872.466	-8.6
616231.2199	2702480.447	-1.3
615504.5756	2700589.472	-1.8
618332.7044	2702403.683	-3.3
616621.194	2697143.283	-9.6
616336.7106	2697447.243	-1.3
610561.3936	2695636.918	-3.8
617478.0224	2698511.538	-16.4
612722.8159	2702010.809	-8.1
611735.9651	2701397.601	-12.4
615421.8006	2691490.767	-8.8
615697.7506	2691496.072	-4.7
615042.7898	2691929.062	-5
610814.6524	2696325.634	-10.5
615275.9497	2699903.093	-9.7
616518.1699	2699296.746	-2.6
616328.3918	2699681.554	-1.8
615224.118	2695318.116	-6.3
615524.0963	2692877.624	-5
602630.0175	2704952.565	-13.5
598509.1975	2702384.584	-0.6
603850.7623	2701625.101	-0.3
602124.6329	2702521.917	-8.5
602126.9605	2703038.996	-12.5
601647.0483	2702109.87	0.1
602112.0429	2701743.164	-4.3
600000.9393	2702333.271	-0.3
599101.5828	2702774.011	-4.5
607946.4508	2701835.423	-9.9
605700.2644	2702421.621	-7.8
603898.4238	2702036.089	-7
603888.8827	2702915.042	-6.1
599422.9709	2700335.785	-3.3
605717.9519	2704516.272	-6.6
606283.4111	2704811.469	-12.8
606882.9224	2703158.512	-10.8
608683.1117	2703861.721	-6.8
608577.838	2702661.549	-14
609026.3554	2701696.737	-9.1
610020.0349	2702470.995	-11.2
613064.0253	2699158.027	-13.9
612769.1048	2698120.188	-8.3
613214.5602	2697085.166	-7.5
609703.6158	2701053.066	-9.1
614128.8448	2697785.285	-15
614212.9462	2696419.719	-9.1
611493.6562	2699859.426	-9.6
613937.008	2699181.287	-8.3
613389.2151	2700584.422	-10.4
610771.2601	2697457.238	-3
609822.7352	2698653.673	-0.6
612081.267	2697126.819	-4
617544.2347	2703450.497	-1
599826.1512	2704386.982	-0.1
601190.1903	2703742.88	-0.8
604023.1194	2704227.876	-14
601468.4257	2705221.862	-11.9
600881.6313	2705346.371	-7.9
598098.1005	2700128.751	-5.8
607214.8643	2701642.246	-9.6
605369.7694	2703633.706	-6.3
602985.4887	2703201.388	-4.1
610129.4532	2697040.421	-5.9
609130.3394	2697439.364	-4
660123.0276	2703727.135	-34
657754.0164	2703025.99	-25.4
659662.7417	2702381.271	-34
655260.9093	2701971.943	-29.6
653941.2107	2702649.053	-24
663718.8351	2703292.981	-32
651276.4851	2702332.119	-16.5
663891.3477	2705802.609	-36
656741.3525	2703717.383	-28.1
657699.2806	2704559.578	-25.9
661872.1972	2704612.136	-34
654725.613	2704719.153	-21
661055.916	2699125.183	-40
656748.5878	2700431.658	-27.2
654704.2262	2700120.981	-27.6
656736.4112	2698974.976	-27.4
652759.4925	2699868.474	-28.6
651773.6203	2699022.026	-27.5
662277.9433	2701964.999	-31
663689.1648	2687227.31	-40
662430.4773	2683138.075	-47
661338.6805	2689292.553	-43
659498.3088	2697024.798	-34
657713.5	2692050.999	-32
658377.4426	2688500.782	-43
655283.0255	2705200.834	-19.9
653763.6088	2705439.612	-14.3
650699.7758	2705243.151	-14.4
651398.8466	2705477.774	-9.8
653842.6271	2704983.202	-9.7
652219.5596	2705338.628	-5.5
653402.0734	2704473.45	-10.3
651741.3345	2704839.681	-8.6
654228.9752	2703963.359	-9.1
650280.7012	2703560.598	-7.7
651758.7678	2703028.913	-15.8
651983.1932	2703665.096	-8.7
649224.1403	2703845.407	-11
650295.2717	2703904.494	-12.7
649913.9489	2704005.869	-8.3
651257.8319	2703783.005	-4.5
650063.8025	2704500.248	-9.9
650857.5391	2704421.552	-7.3
650784.9579	2705619.186	-8.3
643793.9337	2700422.169	-9.3
643729.6863	2701251.091	-7.2
649842.1451	2700182.956	-23.5
650231.0618	2702892.841	-10.4
652955.4428	2701715.445	-27
650248.3683	2704971.656	-4.5
642274.7976	2689543.603	-19.7
642798.1699	2665737.032	-42
642747.8158	2686925.455	-27
642753.9902	2688927.257	-22.5
643726.0376	2689668.92	-25
643780.8715	2685962.351	-26.5
643783.5937	2687991.669	-26.5
644624.5551	2677099.027	-36
645676.729	2666000.973	-49
645775.0961	2689880.727	-26.9
646157.2345	2688850.389	-23
647808.0425	2678686.002	-38
646595.9938	2689216.279	-20
651898.8483	2678091.262	-42
649739.6769	2699042.842	-26
649574.3318	2703048.082	-7.2
649602.0247	2702161.069	-13.8
649179.0901	2702644.342	-7.5
648744.9033	2701798.053	-13.6
648742.6985	2700760.547	-21.5
648379.3755	2702704.827	-11
663464.3078	2675110.74	-46
661604.3232	2677210.935	-45
659568.195	2675145.734	-44
661650.4931	2680114.751	-41
661554.8473	2673160.125	-44
632505.8935	2656486.25	-40
638885.2431	2656808.108	-32
647716.553	2684939.889	-31
647827.4873	2689771.122	-19
647781.0986	2690323.777	-22.5
649238.2244	2689394.155	-20
650008.9327	2688790.259	-23
649741.7501	2690344.425	-27.1
654941.2633	2682287.478	-43
653238.5151	2687886.937	-27.4
651759.0929	2688866.789	-28.9
655758.9999	2690292.774	-32
651792.2778	2690502.318	-27.3
653798.1372	2690659.007	-29.5
655606.6576	2677360.36	-45
654595.3393	2675724.798	-42
653171.1156	2675034.732	-45
641667.9166	2703670.947	-3.1
642006.9335	2702431.22	-4.8
642774.0962	2702476.509	-5.2
643507.8524	2702814.56	-3
642697.3459	2701446.45	-6.8
641780.3183	2700769.874	-10.3
645772.8577	2692850.154	-26.5
645767.2397	2694376.185	-26.5
645762.0356	2695762.053	-25
644762.2929	2699751.466	-11.5
644417.0079	2701769.248	-2.9
645139.967	2700697.556	-5.7
645718.2928	2697147.38	-24
645746.7797	2698609.398	-17.3
646381.0122	2700922.377	-9.5
640750.1027	2703690.106	-4.4
641390.6404	2702911.728	-6.2
640411.8903	2702428.378	-6.3
639526.5408	2702949.877	-5.9
640727.8391	2701458.032	-8.6
638419.5921	2702608.369	-5.5
639246.9956	2701587.29	-6.8
640320.8995	2700368.845	-9.4
638236.6179	2701520.525	-7.3
637562.6659	2702100.045	-5.9
636208.5973	2700669.173	-5.3
637871.2864	2700512.965	-7.3
636792.6983	2699734.703	-8.3
641809.8694	2675648.375	-34
639837.5764	2674856.695	-31
637705.8548	2687734.258	-22
637746.0441	2686317.534	-22
640765.9973	2685725.952	-24
640801.0979	2687298.802	-20.7
638728.8289	2688688.245	-22
638727.4394	2687070.217	-23
641767.0226	2689573.001	-22.5
634334.2898	2648936.674	-47
638560.0534	2652982.42	-47
633774.1797	2695696.017	-11.2
633790.8706	2692224.198	-12.2
633712.6509	2696941.157	-14
633765.9628	2690676.314	-13.4
634293.764	2693333.977	-12.5
633284.1464	2697629.906	-14.1
634283.3718	2698151.63	-14.6
634856.2099	2689262.786	-15.2
635230.4762	2696804.501	-14.3
636776.9044	2686912.142	-23
635638.5707	2696246.434	-13.4
636751.5331	2688695.357	-19.3
635703.1493	2686674.421	-21.5
636236.2833	2690447.23	-17.2
636715.9706	2685653.765	-22.5
635743.3714	2697793.374	-15.1
635879.0591	2647027.381	-49
637039.7515	2644973.807	-46
633687.0354	2644985.051	-48
637248.6663	2640996.47	-47
637813.763	2657260.606	-45
634125.1378	2657708.771	-42
637221.1275	2656048.422	-23
637168.7487	2653866.608	-40
633277.0389	2653744.449	-32
628541.0996	2703073.23	-4.9
629142.0506	2702886.085	-10.8
628962.0568	2703606.34	-1.5
629266.3096	2703486.457	-6.3
629603.7893	2704821.766	-4.9
630006.4382	2703730.028	-7.7
621223.1102	2702087.631	-3
621511.0837	2699152.262	-8.2
627726.7915	2702195.826	-4
624133.2053	2705528.697	-2.9
623777.87	2705473.853	-8.5
623638.3545	2703819.04	-0.7
623314.2492	2704590.843	-13.5
623167.5207	2702940.94	-0.7
631185.1957	2705605.912	-5.6
630748.8951	2704776.622	-13.7
622908.2105	2704650.145	-2.2
622675.2403	2703350.398	-14
622702.4612	2702439.029	-13.8
637243.3334	2697516.8	-14.5
640793.3245	2691644.79	-22
639782.4893	2690936.537	-21
639866.6151	2689512.459	-22.5
647917.6021	2700813.716	-9.6
647249.9699	2699971.003	-19.7
647755.0066	2698720.614	-24.5
638730.3224	2664492.127	-43
637339.4386	2660576.967	-42
640319.3223	2661920.837	-38
653257.2034	2703160.778	-18.4
654721.1703	2703465.821	-22.5
610538.0179	2679803.393	-13.6
619862.6465	2669080.609	-23.5
620717.3953	2681280.547	-14.6
632821.9825	2687131.28	-13.9
628860.6594	2687629.573	-13.7
626507.6546	2685605.535	-15.9
622680.427	2687123.016	-13.8
626310.6689	2682639.172	-16
625624.7796	2689453.871	-13.2
621736.5992	2690168.792	-16
628781.8155	2690490.048	-11.6
635416.2059	2691617.55	-13.8
619621.63	2692215.717	-21.1
627290.3924	2675518.138	-20
635180.6627	2684835.963	-18
630762.464	2673007.631	-27
621478.3388	2697658.023	-12.8
615201.6918	2660518.92	-31
613573.3822	2668984.391	-5.4
639266.343	2693054.346	-18.1
641291.0938	2695250.845	-19.3
643724.8742	2694069.088	-24
643733.7213	2696981.921	-22
642753.2762	2699533.265	-11.9
630753.7825	2693541.195	-11.7
634777.2359	2694344.068	-12.1
620587.1118	2657646.362	-23.5
624449.5356	2659130.809	-22
657813.4296	2697095.096	-29.2
655791.8777	2691911.943	-30.9
651585.8937	2696295.248	-28
651775.4501	2693671.453	-28
610913.0811	2671416.56	-12.4
610310.5901	2667338.697	-5.8
647504.9059	2665489.042	-28.5
653456.6243	2666166.794	-31
652305.2768	2671062.276	-42
662270.8241	2669098.673	-46
622478.5373	2669688.247	-25
621228.7787	2666668.023	-34
626240.6684	2665463.148	-20
602893.2435	2668000.916	-15.6
603108.2727	2665390.145	-12.4
602608.2444	2656433.298	-24
604361.9357	2660324.891	-20.5
602510.0864	2662466.098	-16.8
607830.9397	2673864.962	-15.4
618459.2609	2637492.494	-44
617715.7521	2641109.058	-26.5
615860.558	2643119.274	-33
606087.6628	2666626.681	-8.2
617600.1555	2666131.431	-25
601597.2768	2671014.871	-5.8
612184.7147	2674707.308	-17.6
614386.8662	2678039.343	-18.5
607594.9023	2678470.701	-4.1
610707.2453	2683230.661	-4.2
614732.4668	2687659.221	-0.5
600045.9603	2674875.752	-0.1
609445.3592	2656349.631	-28.5
614988.1007	2674906.369	-19
613928.8014	2663163.631	-15.6
613008.062	2656416.957	-27.5
608056.9524	2670322.562	-8.8
604820.65	2674429.652	-6.8
609318.4205	2659653.107	-17.4
608698.3614	2664429.282	-16.8
613446.064	2681886.708	-8.8
616277.067	2681378.594	-26
594607.6013	2664093.225	-8.6
595339.6145	2661187.216	-17.6
595084.4355	2656741.449	-20
592405.6828	2658903.403	-4.2
600104.4894	2658402.955	-20
595818.7294	2667670.094	-8.8
597726.9759	2672783.131	-1.7
599052.5367	2668442.232	-13.8
588522.8233	2656301.821	-12.8
624759.1626	2639029.53	-45
625766.1628	2643031.169	-40
623105.3305	2644020.335	-25.5
619040.7797	2661958.731	-20.1
618907.1554	2649256.831	-20
618401.3662	2682956.811	-17
623465.0533	2649437.752	-43
621127.7999	2651313.756	-22
621188.136	2647537.492	-42
626632.4315	2650919.594	-39
633165.646	2651933.223	-22.5
629980.375	2640900.632	-45
632245.9522	2696282.155	-9.4
627249.4982	2697902.721	-9.7
632017.245	2699360.484	-3.8
626721.7313	2701542.835	-4.3
622801.1099	2701244.398	-0.4
627287.1191	2693849.369	-12.1
624726.6086	2698745.301	-5.6
616428.966	2652400.279	-21.5
616736.5454	2655863.877	-19.2
617276.1707	2658785.556	-25
617940.3125	2697323.66	-5.4
614497.1381	2692899.685	-4.6
611967.0373	2694397.12	-0.4
616927.9726	2700384.225	-1.1
611688.5117	2703171.566	-2.2
599630.2991	2703558.378	-0.1
607163.8363	2704609.346	-1.2
611164.3828	2698665.224	-3.7
603895.4971	2703802.17	-0.2
661495.3	2703526.847	-31
656659.5671	2701958.053	-26.2
663047.0517	2678088.93	-44
658601.2566	2689633.07	-42
655723.6842	2704412.82	-15.4
650712.3712	2701129.389	-21
642728.6409	2682985.926	-27
643106.9502	2676283.132	-34
650068.7662	2676319.398	-40
647028.6512	2669277.967	-42
651998.8415	2680809.418	-38
656596.6337	2675103.551	-42
659978.4025	2681212.043	-47
648063.1447	2652294.782	-47
641561.0047	2656880.985	-46
649841.65	2691259.926	-19.9
642361.5094	2703365.664	-4.1
636881.2642	2701576.223	-6.5
639234.6255	2700276.915	-8.1
641564.8673	2679333.467	-29
637801.7989	2673883.787	-29
638758.4889	2685560.954	-22.5
641762.6553	2690927.868	-25
638873.8903	2647040.713	-49
638814.4125	2642851.587	-46
636439.6484	2651037.811	-47
633346.5639	2640959.865	-45
635013.113	2638949.67	-47
638077.9437	2654969.087	-39
628755.2936	2704483.456	-1
631621.9876	2704538.42	-0.3
637804.5597	2690104.191	-18.4
647318.9823	2701418.971	-7.2
638875.7447	2661978.932	-43
635661.2917	2659192	-42
640094.6043	2666789.882	-40
619699.3404	2665275.66	-36
625605.4274	2679148.704	-16
631312.0873	2666952.346	-27
615704.3589	2671387.624	-6.4
637779.7165	2693896.125	-15.7
642738.9961	2696038.507	-20.9
631268.9841	2694329.244	-10.6
626457.7872	2657336.915	-21
627539.4019	2662557.643	-20
648962.1112	2696317.99	-17.5
663115.923	2666489.48	-37
625049.7102	2668188.088	-18
603281.9616	2661456.931	-18
606646.2093	2657138.17	-17.6
615951.8454	2638855.376	-34
607002.8692	2665487.935	-9.4
603761.3056	2678016.627	-1.6
607685.5703	2682045.867	-2.3
614752.9313	2656496.939	-26
591586.5132	2664698.712	-1.6
610569.1654	2660719.305	-16.8
600496.1237	2656361.367	-24
596058.6627	2660251.468	-15.8
595739.875	2671087.076	-0.3
598381.8556	2665174.936	-11
584437.0038	2655607.888	-4.7
622355.6151	2637450.619	-48
619661.6369	2654342.698	-18.2
625655.5954	2646833.772	-25.5
630020.5334	2649981.028	-23
626820.9467	2689837.007	-12.3
623906.4348	2700780.536	-1.4
635280.3569	2699014.189	-4.1
616261.7855	2689047.958	-4.3
614168.6579	2701515.5	-4.3
657791.5473	2701308.464	-26.5
643932.1748	2666703.042	-40
662587.1913	2653325.026	-49
657846.8393	2679179.076	-45
652499.181	2683675.565	-36
653933.5929	2689125.801	-25
653352.8606	2673821.434	-36
644713.3648	2702140.413	-1.5
641575.411	2687726.789	-19.3
637514.1287	2649037.991	-47
647708.0053	2657824.013	-37
620348.2146	2682423.906	-16.8
626831.0724	2687576.813	-13.9
621732.3152	2688780.405	-15.7
645768.5534	2691498.407	-26.1
623765.8334	2692079.972	-14.1
621808.3318	2678165.985	-8.2
621771.5656	2671784.734	-23
624808.1191	2674413.155	-20
632316.3943	2685945.941	-15.6
630401.9648	2674647.239	-29
633818.0044	2670939.566	-27
634686.4917	2662261.21	-45
640777.0989	2699271.963	-12.5
637782.2649	2691868.779	-17.1
641777.2171	2693822.098	-22.5
638371.3494	2696273.005	-14.6
653780.4922	2693861.61	-28.5
649782.5407	2694820.057	-27.7
610125.5974	2670495.912	-10.4
654902.4647	2668685.399	-30.5
663710.7572	2671088.094	-47
602483.4572	2658378.091	-22.5
604666.258	2662384.121	-17.8
599828.0304	2662168.533	-13
616430.0305	2639672.935	-28
604189.0716	2666470.385	-9.4
618519.769	2667518.395	-25
617601.2374	2674137.361	-10
612879.1905	2680775.376	-11.2
616832.9229	2686251.317	-9
611196.7047	2656382.435	-29.5
615501.9431	2659478.973	-29
608271.48	2666427.601	-8
591471.5974	2662960.622	-0.9
618724.9129	2663383.655	-25
592433.333	2666730.994	-7.8
596193.3934	2663349.499	-9.4
597068.5192	2658435.95	-18
598336.0162	2667547.986	-12.8
599683.9007	2671600.849	-5.6
585612.5152	2656853.706	-2.8
623926.4017	2641360.573	-42
624039.4245	2653989.218	-22.5
619787.274	2649648.837	-21
627947.0237	2653795.636	-43
630570.4211	2645013.461	-43
631695.4248	2638990.311	-47
620286.1891	2700312.047	-0.9
619881.9442	2695741.427	-12.7
625301.0676	2700976.439	-4.7
629738.6469	2697125.134	-3.3
625231.3229	2696048.656	-11
627599.186	2691652.4	-11.8
615974.6767	2655354.14	-19.6
616577.8194	2691089.307	-0.7
615547.7351	2701137.398	-1.7
602247.9865	2704379.062	-5.5
609587.168	2704282.36	-1.4
609851.9269	2699850.566	-4.5
598198.2141	2704085.679	-0.6
605373.7018	2701487.387	-0.1
660697.8082	2705160.374	-31
662770.3798	2700514.257	-31
654719.5008	2698722.4	-27.2
662953.3183	2682091.948	-39
657817.9627	2695322.696	-29.9
657717.7926	2690212.912	-34
657256.9307	2681995.111	-40
656722.0474	2705446.979	-24.9
648653.6595	2704479.266	-4.7
645284.2663	2685681.258	-25
649279.9231	2679649.092	-38
658063.4776	2676963.848	-43
657514.8375	2673114.938	-44
663019.0127	2648362.903	-48
656065.1232	2644693.889	-51
645191.5937	2645217.628	-50
655543.4068	2650105.306	-43
631019.3891	2656070.747	-31
652527.3437	2689633.291	-23
640205.3767	2675988.036	-27
659383.7332	2642008.214	-49
638795.5407	2638885.723	-49
638512.8031	2657871.586	-27.5
635735.3011	2687872.531	-18.8
634224.5536	2646953.819	-40
629077.7449	2705469.796	-4.2
624196.8261	2704640.191	-0.2
647217.2201	2698253.443	-15.4
656121.9174	2662025.596	-38
631621.1666	2689963.019	-11.2
631349.5159	2676005.118	-25
614471.0095	2670347.262	-6
640273.3035	2693842.571	-20.1
621912.7853	2660352.76	-16.4
655747.9246	2695432.593	-29.4
658611.3551	2666438.697	-34
623874.3098	2684782.38	-6.7
624805.7831	2669115.928	-18.2
611650.3177	2661213.76	-16.6
605246.2415	2670866.598	-1.2
593103.5788	2668374.698	-4.7
598467.1686	2660908.455	-11.6
622035.386	2639918.755	-43
628082.3035	2648209.982	-25.5
620899.1232	2695065.371	-13.3
629922.3409	2701179.612	-0.2
646232.1496	2677840.791	-36
644855.0219	2650329.438	-43
639188.3478	2683452.314	-25
647544.43	2637861.075	-49
635745.3214	2642964.912	-39
637201.0911	2666508.638	-36
621096.4689	2672784.91	-16.4
629393.1949	2678318.405	-18
628656.0636	2670315.88	-23
626263.4564	2694863.842	-11.2
653726.5227	2696577.141	-28
658060.9024	2669961.107	-31
604543.2028	2656389.306	-23.5
605674.0079	2663462.124	-16.4
617329.3641	2678762.124	-4.8
611961.9493	2658944.377	-28.5
610012.6728	2676555.374	-1.4
594377.496	2669063.962	-1.6
620353.9493	2643099.087	-25
618240.2461	2654358.371	-18.8
614880.3732	2695674.409	-0.3
608429.2141	2700503.731	-0.1
645309.7267	2674370.024	-29
645408.318	2681607.73	-32
661548.772	2661659.75	-42
660044.3507	2678246.768	-40
658161.8598	2647835.293	-51
653277.696	2681546.308	-40
655708.7385	2688774.646	-25
645739.038	2699649.974	-7.8
641329.2738	2688791.142	-19.8
650628.865	2644307.221	-53
634246.7025	2695080.645	-11.1
632270.9872	2688087.374	-13.7
636727.3696	2677521.706	-27
641736.6409	2660101.17	-27.5
652381.8818	2661315.029	-31
621320.832	2675546.183	-14.6
630858.9326	2682834.784	-18
612813.6349	2666358.094	-1.8
626172.653	2662344.181	-18
613033.8254	2684684.57	-0.2
597016.1564	2676898.444	-0.1
600686.1884	2664759.885	-16
589648.0821	2658848.335	-0.2
627827.8611	2639027.864	-45
619280.5289	2704456.653	-0.2
629070.1511	2696242.557	-7.9
616124.0898	2647695.205	-19
600341.4895	2700643.465	-0.1
661001.7437	2687771.079	-38
652726.5622	2704214.631	-3.4
649670.859	2667974.881	-25
654174.3508	2653807.2	-37
648423.9322	2688451.745	-14.6
639162.6623	2703447.168	-0.1
657736.5835	2637846.543	-47
642183.958	2642854.911	-49
635454.5542	2654163.693	-22
619963.4163	2687692.483	-15.6
617105.0498	2694320.159	-15.1
620328.8939	2703378.774	-4.6
618284.9673	2692983.688	-14.6
608987.8093	2696197.776	0.4
606950.7671	2704501.27	-3.1
609504.7407	2704062.74	-7.4
613707.0391	2693244.338	-1
607364.3593	2697596.173	0.1
607647.5658	2696902.564	0.2
616403.4101	2703603.212	0.9
608479.5079	2696476.848	-0.6
630417.9147	2702764.541	-4.8
630918.3959	2703788.178	-3.7
630087.0132	2704116.044	-9.6
630029.5252	2704959.02	-5.3
630585.1762	2704295.055	-6.1
629385.6217	2701760.785	-8.5
622594.4809	2705400.616	-0.3
623246.5227	2705144.784	-1.6
613935.201	2676228.74	-20
549706.2985	2615186.923	-20
553285.7643	2623508.359	-2.4
552875.1122	2628645.269	-4.7
559086.225	2626070.052	-8.9
553078.7905	2630489.804	-0.3
555640.3599	2628758.37	0.1
556546.5564	2628055.405	1.1
552134.2223	2630372.436	0.1
556371.7216	2625843.716	-0.2
548383.1623	2632541.507	-0.3
552263.3459	2627509.607	-0.4
559695.6003	2631725.126	-0.5
550194.6695	2622736.21	-0.5
559740.8758	2629854.207	-0.6
556356.2115	2625287.2	-0.6
553525.1423	2624607.668	-0.6
550316.0709	2622412.928	-0.7
552240.3067	2630125.647	-0.8
547830.3467	2616820.006	-1
553290.0773	2627816.392	-1.2
548469.5016	2628582.764	-1.3
548797.3186	2632868.818	-1.4
548921.0083	2628768.893	-1.4
556303.5996	2632613.781	-1.6
556749.2443	2628794.756	-1.7
548142.2479	2617040.985	-1.8
553077.7899	2624985.74	-1.8
553032.2599	2629940.853	-1.8
551100.7877	2628265.172	-1.8
553782.2601	2627050.768	-1.9
555520.2295	2631008.707	-2
547847.7401	2630367.822	-2
551389.2867	2630944.726	-2
549677.8171	2623898.923	-2
557213.837	2628518.319	-2
556625.8371	2626061.262	-2.1
552728.7499	2629628.811	-2.1
553489.236	2627297.309	-2.1
558388.7956	2630157.617	-2.2
555798.3334	2630092.793	-2.2
556705.716	2633066.346	-2.3
548519.4246	2630354.606	-2.3
556291.9023	2628875.655	-2.3
560003.7204	2627487.717	-2.4
559483.1994	2632213.848	-2.4
557059.2736	2632232.523	-2.4
556203.7399	2629351.813	-2.4
555539.666	2629857.841	-2.4
557987.3409	2627298.744	-2.5
559184.309	2631415.145	-2.6
548541.4667	2619430.248	-2.6
555905.3353	2629627.703	-2.6
554107.6908	2627051.779	-2.6
555752.8669	2626381.721	-2.6
555615.7156	2629354.629	-2.7
553170.6752	2623807.451	-2.8
552138.5478	2631260.555	-2.9
551871.1459	2630451.715	-2.9
558596.4146	2630853.855	-3
560054.9752	2633017.511	-3
555343.1571	2629141.137	-3
559991.3504	2627039.739	-3.1
550412.7278	2617203.36	-3.2
559828.3722	2626463.367	-3.2
555891.7017	2629100.178	-3.6
550894.5729	2623000.144	-3.7
551207.6978	2630377.671	-3.8
552341.1015	2632361.35	-3.8
550070.544	2623904.735	-3.9
559135.7735	2630613.359	-3.9
555967.8759	2628626.807	-3.9
557585.4	2628303.243	-4
550614.3363	2623302.953	-4
550736.2915	2629978.741	-4.1
553824.1661	2629447.803	-4.3
554214.6779	2631797.589	-4.3
558257.2811	2630947.752	-4.4
554199.1496	2625838.708	-4.4
553285.49	2632826.743	-4.7
556160.2336	2628259.275	-4.8
548674.7877	2621928.179	-4.9
550777.3592	2624211.962	-5
554499.5627	2632723.439	-5.2
551771.6563	2629813.839	-5.2
558033.8425	2629636.88	-5.3
553458.378	2629665.786	-5.3
554585.7967	2631395.684	-5.6
555000.2405	2629907.785	-5.6
552990.1526	2627181.728	-6
551899.3432	2629383.719	-6.1
550988.128	2629397.752	-6.2
552896.6665	2631645.691	-6.2
557441.6934	2628938.846	-6.6
548816.664	2616941.599	-6.6
550808.0238	2621831.608	-6.8
549589.8444	2619543.721	-6.8
549115.945	2622292.383	-7.1
554929.6983	2626164.661	-7.3
552854.8722	2630965.828	-7.5
557352.305	2629305.729	-7.9
559027.9538	2632704.838	-8
551415.3372	2618578.731	-8.1
553229.9339	2624216.878	-8.2
557186.6623	2632630.224	-8.2
558481.3969	2629459.723	-8.3
557071.1969	2631007.216	-8.4
553292.8114	2628456.669	-8.5
559185.2669	2629733.734	-8.8
551471.5581	2619291.324	-9.3
553571.3662	2630798.677	-9.3
556407.7121	2627926.693	-9.3
550077.4894	2617926.059	-9.5
548848.5586	2619857.482	-9.5
551780.3383	2628636.233	-9.7
553828.273	2625266.652	-9.9
550178.6784	2621888.168	-9.9
552321.2371	2628692.802	-10.4
556342.8188	2622185.454	-10.4
551194.372	2623325.498	-10.6
558024.0829	2622568.406	-10.6
558090.7331	2630443.2	-10.7
554035.2143	2630146.851	-11.1
549861.0689	2622006.14	-11.2
551566.5559	2623285.157	-11.4
553665.8238	2630358.723	-11.4
557205.4206	2625605.82	-11.5
554052.2065	2628586.222	-11.5
548211.1519	2616678.362	-11.5
550931.0957	2619935.95	-11.6
557371.386	2622519.496	-11.6
552688.2167	2628485.327	-11.8
551368.1958	2628926.839	-11.8
554862.3153	2624695.749	-12
551804.7209	2622877.372	-12.1
550420.9208	2618953.491	-12.3
555895.886	2624957.694	-12.4
558992.6801	2628845.756	-13.1
551049.2312	2621426.236	-13.2
558202.7438	2628946.755	-13.8
550192.5934	2618439.484	-13.9
558803.4365	2628027.21	-14.2
551197.689	2622210.14	-14.4
552265.3723	2622422.431	-14.4
555760.7292	2621362.84	-14.4
558097.2963	2626772.63	-14.5
549403.6045	2615778.921	-14.5
549856.7102	2616927.012	-14.6
552588.8452	2629169.47	-14.8
547993.2737	2615183.842	-14.8
555463.2384	2626631.703	-14.8
550997.1855	2618587.816	-14.8
559215.4025	2627526.743	-15.5
549312.1063	2616687.728	-15.7
555467.7541	2627685.222	-15.9
557502.2599	2624827.632	-16.2
548456.4372	2614677.089	-16.3
555973.588	2624034.36	-16.4
558328.3226	2628532.695	-16.6
554425.2433	2629425.869	-16.9
556587.8349	2624447.17	-17.2
558085.4853	2623426.971	-17.4
548703.8685	2614927.781	-17.7
554752.8032	2615778.904	-17.8
558883.2648	2627077.676	-17.8
554514.1557	2625326.696	-18
555282.7287	2628581.713	-18
554032.2683	2624390.697	-18
557592.235	2620935.259	-18
551417.2896	2616699.08	-18.1
554773.6766	2616393.346	-18.2
554177.4443	2615290.449	-18.2
556860.7355	2624802.766	-18.3
556291.9778	2616567.041	-18.4
551408.0377	2617132.232	-18.5
560856.5608	2625194.828	-18.8
555479.8775	2616288.482	-19.2
553765.6167	2615658.147	-19.4
553931.1863	2614641.382	-19.8
557895.8227	2628696.316	-19.9
555361.3163	2628107.12	-20.1
556625.8137	2627109.714	-20.3
557775.7493	2629116.272	-20.5
553802.4593	2614264.984	-20.5
557180.739	2625990.314	-20.9
556533.1615	2616181.915	-21
555932.7799	2627560.653	-21
557174.9126	2624422.233	-21.6
553184.5884	2614260.281	-22
556233.8656	2627287.786	-22.3
554701.5244	2614703.44	-22.5
556183.1392	2617697.465	-22.5
557124.8828	2619828.24	-22.5
557075.8246	2626426.671	-22.6
556078.8706	2616847.147	-23
554958.5738	2616039.904	-23
559347.4506	2624190.777	-23
556800.7414	2618362.12	-23
558362.7664	2626985.768	-23.4
558715.717	2626261.747	-23.5
555983.3937	2615558.528	-23.5
558079.3426	2627811.223	-24.4
553252.28	2616773.134	-25
558340.9046	2627521.161	-25.1
558896.3737	2625344.809	-25.8
551021.493	2614193.798	-25.9
555855.6495	2617382.969	-26
552321.2542	2618468.121	-26.5
558129.9406	2625215.343	-26.5
559072.412	2622421.043	-26.5
558454.4033	2626024.64	-26.8
555104.7655	2626605.76	-27.6
549677.409	2614420.752	-27.8
550066.629	2615284.736	-29.5
558542.3565	2625071.739	-30
558880.4224	2624417.662	-30.9
555321.2206	2625994.682	-30.9
552064.0497	2616438.914	-31
559147.9346	2623887.012	-32
559843.6259	2623303.642	-33
559313.1425	2623337.231	-33
558456.2415	2624453.739	-34
557884.7793	2624891.742	-37
557640.5179	2627365.811	-0.3
557432.529	2627765.151	-0.4
551840.5875	2630081.159	-0.5
548784.5862	2628384.555	-0.6
552748.1082	2627151.605	-0.6
550082.6677	2623097.504	-0.7
552791.2743	2630533.623	-0.7
549874.4697	2624499.175	-0.8
550112.344	2622503.256	-0.8
556939.5959	2632614.043	-0.8
556933.3	2628419.702	-0.9
553269.3311	2624780.22	-0.9
559516.8447	2632624.999	-0.9
557211.8556	2627839.662	-1
558573.7581	2630729.689	-1.1
559209.2964	2630314.295	-1.1
559254.4092	2631996.638	-1.1
550036.6084	2624555.201	-1.2
553437.8426	2627130.749	-1.2
549523.5619	2624028.636	-1.2
559454.8485	2629866.654	-1.2
550427.8462	2622643.338	-1.2
553499.8137	2627732.677	-1.3
556592.6967	2625494.32	-1.3
557701.2629	2627875.726	-1.3
556929.8988	2627894.209	-1.4
553924.2772	2626166.783	-1.4
549826.36	2624127.206	-1.4
553119.7325	2627792.818	-1.4
554304.7656	2629054.538	-1.5
560143.1177	2628703.227	-1.6
550791.2331	2628443.237	-1.7
549602.0051	2622773.184	-1.8
552249.2278	2630472.777	-1.8
559627.4278	2629391.269	-1.8
557405.2723	2628291.763	-1.9
557254.7673	2624885.789	-1.9
551679.3067	2630766.848	-2
552312.9017	2629880.776	-2
559378.4014	2624973.744	-2
556549.3363	2629634.677	-2
556040.2431	2626614.615	-2
554078.7124	2626647.61	-2.1
555605.7214	2630428.785	-2.1
548212.5726	2616985.928	-2.1
547850.3372	2628787.87	-2.1
556119.3373	2630327.194	-2.2
555427.2152	2630796.722	-2.2
551189.2609	2630881.66	-2.2
553425.204	2625819.79	-2.3
557788.2384	2627299.766	-2.3
551566.2524	2628066.312	-2.3
558319.838	2629128.818	-2.3
555649.7029	2628382.642	-2.4
552112.6733	2630607.744	-2.4
555146.7841	2630041.774	-2.5
553966.7389	2629286.248	-2.6
553058.7609	2630247.644	-2.6
549877.91	2624263.504	-2.6
552277.2214	2627888.686	-2.7
550976.5287	2624371.554	-2.7
555083.2525	2630509.66	-2.7
550420.9217	2617539.005	-2.8
552961.7328	2624385.757	-2.8
551798.7599	2628253.826	-2.8
550370.3481	2624637.009	-2.8
553183.3918	2629434.86	-2.9
560487.5778	2625151.23	-3
553127.3248	2627278.723	-3
555019.3157	2630983.226	-3
560131.7425	2627281.657	-3
552774.7947	2623832.213	-3
550255.5303	2630567.688	-3
554799.3034	2627129.725	-3.1
551945.3424	2627937.269	-3.1
555780.2302	2625339.834	-3.2
559590.6885	2628342.226	-3.2
553685.2548	2626037.715	-3.3
552953.8771	2623360.047	-3.3
552062.275	2629261.205	-3.3
549122.577	2622614.478	-3.3
550180.1067	2624126.784	-3.3
550652.2379	2630435.838	-3.5
548014.3056	2617252.176	-3.5
552127.2932	2629983.679	-3.6
557912.3352	2627665.725	-3.6
552846.1393	2629182.18	-3.7
550187.2806	2622167.607	-3.7
552030.9031	2629682.753	-3.7
552880.8274	2627410.667	-3.7
558663.7184	2630579.762	-3.8
560385.0582	2624594.1	-3.8
556674.29	2625567.784	-3.9
550399.8128	2624344.742	-4
556477.7875	2625266.727	-4
547726.8779	2616942.463	-4.2
548095.5063	2616918.467	-4.2
556912.2846	2625749.11	-4.2
556987.3716	2631773.514	-4.3
552545.5586	2623501.808	-4.5
552519.7716	2630968.674	-4.5
553587.7255	2632418.091	-4.5
559652.2612	2626558.306	-4.6
551691.4035	2623886.842	-4.7
558034.3336	2629460.784	-4.9
550597.0869	2622478.11	-4.9
552372.7908	2628201.638	-4.9
551326.2305	2624074.302	-5
554270.7273	2630877.86	-5.1
555300.1947	2628848.279	-5.1
554983.2276	2626894.171	-5.1
554373.2417	2626876.232	-5.1
550379.5592	2623974.683	-5.2
549260.9713	2619127.374	-5.3
554425.8903	2628384.686	-5.3
554428.2227	2633170.11	-5.4
556094.2833	2628082.701	-5.5
551672.2329	2628419.734	-5.5
554642.8229	2626062.61	-5.6
553202.2629	2625392.726	-5.6
558729.3292	2630424.653	-5.6
554766.244	2628408.12	-5.6
554717.3037	2630987.764	-5.7
550480.7174	2629882.817	-5.7
552651.3499	2628963.341	-5.7
556984.2589	2625168.148	-5.8
554140.7215	2627347.663	-5.8
551169.6614	2622552.24	-5.8
550920.1446	2624055.185	-6
558305.2789	2630730.234	-6
556801.8229	2625530.702	-6.1
551325.7997	2629948.121	-6.1
553960.8505	2632721.221	-6.2
552185.3696	2628065.692	-6.2
555705.8481	2626831.712	-6.3
557288.7874	2628314.684	-6.4
550867.1282	2629562.657	-6.4
552606.2816	2627892.712	-6.4
553982.7051	2625919.165	-6.5
553059.7661	2628803.753	-6.6
548630.3339	2619174.662	-6.7
551254.3405	2629363.746	-6.8
553980.3531	2626822.775	-6.8
549595.5746	2622395.2	-6.8
558489.7477	2631165.979	-6.8
556894.2628	2625893.304	-6.8
553630.3058	2624577.763	-6.9
559363.3834	2624421.854	-7.1
550067.5825	2617199.113	-7.1
553558.8647	2624002.107	-7.2
553295.8838	2629004.684	-7.2
547877.711	2616567.48	-7.3
553798.3052	2630995.696	-7.4
547973.8597	2616692.42	-7.6
556963.8607	2625288.74	-7.8
556526.3616	2627662.693	-7.8
547969.8837	2616849.549	-8
