662215.1146	2665585.488	-38
668823.5236	2666091.203	-48
672091.0983	2646457.832	-56
665787.0675	2666035.274	-49
663115.923	2666489.48	-37
662587.1913	2653325.026	-49
673195.5996	2648422.834	-49
665933.1344	2641598.324	-51
667595.917	2652560.348	-50
663019.0127	2648362.903	-48
667574.6705	2662124.746	-49
673112.4651	2657683.216	-48
672298.5149	2639325.988	-62
671594.7858	2665964.614	-49
661548.772	2661659.75	-42
667843.4764	2657406.847	-47
667500.7544	2648414.413	-46
671612.2959	2663237.495	-48
792952.4856	2501473.827	-717
768254.9889	2646721.686	-65
737004.2284	2646422.656	-58
803472.7177	2511936.158	-214
686476.2489	2616545.369	-42
784911.6166	2649560.936	-23
784103.3823	2501291.94	-929
808790.5779	2599891.321	-0.1
768785.3017	2622082.822	-0.2
819824.3303	2548973.56	-0.2
761267.2284	2586141.679	-3.8
693278.3701	2555999.083	-11.8
729403.536	2558865.392	-14.6
820203.885	2639319.701	-14.7
668662.5032	2512020.509	-17.8
669841.3291	2585247.4	-29
715148.9573	2656190.655	-42
710669.5086	2592767.388	-45
720359.8462	2521579.472	-53
764465.6618	2536030.295	-87
822446.3662	2511704.769	-134
820407.8212	2624305.246	-0.2
755768.184	2590229.706	-1.6
688975.5146	2521910.984	-17.6
781011.656	2578270.982	-20
812371.5137	2659759.077	-21
728029.0552	2591533.203	-25
678352.7304	2591586.815	-40
675798.6869	2654508.552	-49
710448.0223	2613921.827	-49
757679.8207	2561719.024	-53
685426.7076	2629313.409	-54
741230.0974	2616556.307	-54
752496.4123	2647957.541	-56
822661.987	2517191.374	-59
754808.5808	2527988.56	-87
795685.5804	2534745.296	-123
772833.4468	2502509.693	-468
756231.3108	2604299.837	-1.1
815080.8298	2570630.235	-1.4
782309.957	2599712.606	-3.1
749806.9913	2568140.293	-4.3
770981.0872	2576497.728	-9.2
676550.7764	2534357.432	-9.6
737205.3401	2589305.686	-14
671855.3543	2561034.969	-14.6
710079.9481	2540340.603	-16
822037.9953	2525770.389	-23
662264.6567	2584646.302	-29
704029.5979	2574961.472	-32
690661.05	2649233.643	-45
714728.828	2603215.236	-45
685581.2789	2591926.339	-45
700723.6475	2509254.153	-47
750090.8713	2632656.928	-51
706175.1019	2624895.393	-53
729614.0082	2620095.586	-54
797059.6386	2630933.82	-67
745384.5401	2659378.385	-69
751044.9442	2544459.762	-87
772424.0591	2533075.551	-92
757630.2699	2507654.856	-95
796152.9885	2580910.538	-111
783124.3933	2552475.625	-118
762515.8561	2606537.461	-0.8
818829.7259	2585523.738	-1.2
812882.2371	2564892.098	-4.6
676206.1892	2559015.285	-14.1
712958.5334	2554846.467	-14.6
757291.0957	2633224.596	-17
672444.5782	2518031.688	-17
703300.9168	2529720.285	-18
809817.9439	2637823.28	-19.5
665564.3603	2577048.549	-20.1
717561.9534	2538063.557	-21
714532.7124	2571130.291	-25
692901.2923	2577302.669	-40
714041.7987	2587116.405	-42
746372.2399	2619610.795	-45
804338.944	2616764.451	-47
676790.9542	2662980.655	-47
682396.5302	2633532.881	-51
667141.6087	2612666.876	-51
697582.3248	2597092.998	-60
792023.4454	2634279.546	-60
719416.4442	2637598.519	-62
734777.2863	2534889.81	-64
803128.5533	2581079.204	-71
769564.6902	2557283.152	-74
786539.2714	2615071.258	-78
806078.4629	2531066.494	-95
803785.8263	2548781.49	-109
787061.0526	2580661.198	-133
823439.7671	2505402.82	-153
774839.3358	2516345.355	-158
790433.2513	2522585.788	-166
787150.6453	2561286.624	-177
818480.9845	2610067.93	-0.2
757873.4025	2614292.596	-0.3
763820.6954	2632824.454	-3.5
809562.4883	2555237.134	-4.3
759239.3512	2575468.665	-4.3
771305.1299	2605373.571	-4.5
807416.4712	2579663.417	-7.3
779995.1383	2616984.07	-12.7
690702.3061	2535255.543	-12.8
762554.7651	2667410.219	-12.8
675635.2774	2545876.142	-13.7
664868.057	2557439.263	-14.6
777653.2837	2668212.534	-18
755639.4541	2602724.327	-19
808863.2626	2632612.5	-19.5
667879.6668	2570026.042	-20
717864.3461	2567595.778	-21
695331.4317	2568597.611	-21
821027.0935	2534222.788	-22
678675.9611	2575438.084	-23.5
808445.9889	2644446.657	-25
727217.6745	2534250.18	-27
740815.6864	2576292.2	-27
727294.8149	2575140.648	-29
722676.7583	2588960.135	-32
788937.7773	2661726.402	-38
676656.5757	2506253.206	-40
705534.6002	2578813.616	-42
702758.2905	2655633.219	-43
702593.9423	2591863.585	-43
709414.0828	2644328.25	-47
743491.9842	2605742.092	-47
744529.7088	2553317.875	-47
688515.4034	2583699.871	-49
674539.3538	2611217.527	-51
700752.8969	2603520.417	-54
696706.9933	2636130.456	-58
684408.0352	2601518.599	-58
780275.0066	2584079.328	-62
803530.6062	2568734.945	-71
735369.1365	2519068.4	-78
722743.5547	2506412.985	-85
779798.4352	2636510.639	-86
793037.6491	2585099.909	-98
772917.328	2545116.441	-108
769479.7071	2520024.246	-113
783377.6385	2567211.928	-116
793853.3483	2599203.276	-120
803384.0304	2543337.491	-126
781498.6533	2536905.366	-133
745280.7581	2504408.737	-135
808032.4416	2516237.541	-144
817920.4509	2596644.309	-0.3
773379.6111	2614849.258	-0.9
763796.8087	2629117.623	-1.9
755824.0468	2621961.847	-2.7
810005.4956	2588880.989	-3.3
757803.5564	2600247.781	-3.9
814192.5865	2617632.215	-7.6
808361.731	2611413.224	-8.3
752899.3456	2607682.869	-9.2
664864.4266	2547758.893	-10
672580.3356	2525783.77	-10.8
701393.9173	2557219.73	-14.6
695469.106	2546121.028	-14.6
781563.4853	2615974.546	-15
737956.3294	2580970.185	-16
681720.0691	2568593.294	-16
752836.2469	2580789.07	-17
666430.7122	2565963.066	-18
821244.3082	2538861.164	-18
673632.853	2569358.613	-21
813070.1798	2544905.834	-24
806664.7479	2623188.817	-26
748185.414	2593702.95	-26
708264.9566	2563816.696	-27
721036.0623	2558855.561	-27
767346.9835	2566600.517	-28
761592.4292	2584509.978	-29
761234.2169	2637441.866	-29
771854.0944	2635253.83	-29
728462.1898	2548163.266	-29
738192.9126	2564298.352	-29
806476.0333	2564021.473	-29
675813.1227	2577777.465	-31
772678.2823	2595668.955	-33
819319.7032	2650353.983	-34
800948.0263	2641277.473	-36
744524.9965	2559037.825	-36
719566.7364	2579629.004	-38
672313.0618	2586915.359	-40
695536.8795	2587995.414	-45
737169.1868	2573066.901	-45
708628.1516	2648820.401	-45
722711.3353	2651220.77	-47
715403.0514	2640638.542	-49
703445.4513	2583228.986	-49
739995.138	2596680.57	-50
706925.5183	2599637.885	-51
687057.2263	2605668.877	-51
696782.987	2616595.565	-51
671299.0361	2631708.342	-53
680050.3451	2625689.874	-53
785536.3548	2638446.635	-53
700059.154	2643669.156	-54
675623.4957	2602902.028	-54
683538.7894	2644930.168	-54
734216.2493	2607094.431	-55
688004.3563	2660575.545	-55
669258.0503	2623270.385	-56
815390.5094	2532426.378	-56
743258.8817	2640052.789	-58
717212.7827	2623009.482	-58
791355.5396	2644736.222	-60
780503.912	2589723.468	-61
700372.8681	2609003.685	-62
724194.3892	2633651.364	-62
736890.3192	2625327.317	-64
718816.1764	2665782.64	-64
800659.9697	2608668.58	-67
769161.4223	2656632.008	-73
780816.0003	2627682.412	-83
759867.7636	2552896.405	-85
751717.9784	2553822.618	-87
800912.3301	2591726.488	-87
788753.7573	2630089.671	-91
778425.6331	2569293.444	-93
793649.8197	2618911.411	-100
799469.0507	2600348.6	-106
791633.5686	2555370.241	-119
798388.0226	2573592.563	-124
755435.2112	2517529.665	-126
789305.2885	2575143.731	-129
806430.326	2521086.233	-131
789728.7213	2543007.192	-142
791564.4786	2567372.991	-142
813693.4355	2516429.815	-158
779526.9263	2523157.429	-158
810346.4681	2505558.876	-282
762001.3422	2604603.219	-7.6
791299.3722	2650966.681	-49
761592.3232	2648737.556	-65
814220.7951	2552311.027	-0.6
766089.2392	2627520.692	-0.8
817605.6891	2618178.911	-1.6
821052.9722	2592078.113	-2.7
769213.4997	2632019.249	-3
816015.8264	2576153.238	-3.4
761538.8026	2622746.063	-3.6
812893.4837	2595339.243	-4.4
758351.0963	2633715.423	-4.6
756805.8311	2582360.733	-5.2
808387.8932	2567769.963	-7.5
813393.6889	2605245.925	-8.6
813213.6043	2612373.723	-8.7
810099.5661	2583815.853	-9.7
808163.1745	2560872.795	-11.6
778028.437	2610267.917	-12.9
818442.9344	2630074.54	-12.9
817539.137	2544156.639	-13.4
745997.0201	2574396.551	-13.8
806926.8723	2604764.157	-14.1
699279.8059	2564565.404	-14.6
751466.1359	2611034.192	-15
674397.5306	2564608.207	-16
759181.8865	2599271.015	-17
675271.4213	2510085.413	-18
749223.0111	2591018.425	-18
685090.9971	2562232.925	-18
816859.9881	2635012.249	-19.6
782181.0092	2605463.064	-20
665013.4694	2524029.018	-20.5
662033.3264	2563028.735	-21
811771.788	2621587.063	-21.5
677450.327	2572160.2	-23
690954.0103	2563120.211	-27
697535.1881	2552196.236	-27
734215.2504	2596263.861	-27
819505.3034	2645969.227	-27.5
744814.9084	2564867.475	-29
782184.9146	2594138.243	-29
813379.9993	2630421.315	-30
756344.5508	2628898.707	-30
690322.4392	2571142.934	-31
813170.8805	2648764.111	-31
667442.1831	2589783.354	-31
766484.2667	2637008.03	-31
678057.212	2582687.757	-32
734555.8773	2556332.186	-32
771451.7009	2571488.901	-32
815701.6922	2537057.71	-32
755173.8367	2570478.979	-34
752493.631	2576327.43	-35
748074.2323	2580873.514	-35
706089.772	2570289.481	-36
814622.2952	2640549.099	-36
741645.4896	2569430.525	-37
799420.6728	2636678.359	-38
801965.1033	2632518.832	-39
744375.8846	2584832.394	-41
687554.8541	2575877.637	-42
714478.2905	2579123.69	-42
729766.3803	2584259.024	-43
738863.2283	2558915.666	-43
717070.7983	2590851.811	-43
749690.8294	2558450.009	-43
745365.1377	2599341.947	-44
803375.3447	2627286.284	-44
707625.7677	2653171.231	-45
710701.0049	2582432.652	-45
747616.1266	2607717.579	-46
712713.0974	2608229.763	-47
749552.3056	2602018.429	-47
804182.8649	2648699.043	-47
667850.7963	2598373.669	-47
805209.4884	2584976.43	-47
716837.6297	2597559.733	-47
737638.0444	2602772.458	-47
805054.9243	2590238.298	-48
682735.5995	2612841.545	-49
767384.6909	2583516.741	-49
697894.2181	2580200.258	-49
701927.4718	2648587.912	-51
750369.696	2623554.924	-51
706548.2023	2658765.408	-51
693283.2992	2582674.298	-51
767232.276	2596643.632	-52
674334.1687	2618439.17	-53
715150.3217	2645544.169	-53
679751.1099	2637528.214	-53
690549.035	2591507.553	-53
709305.2958	2639249.731	-54
687738.436	2622385.791	-54
762520.688	2568300.95	-54
741172.0695	2610104.492	-54
664799.6134	2627615.377	-54
685569.7968	2664904.879	-54
692055.5015	2619965.885	-54
708063.5435	2619552.251	-54
680271.6087	2607047.161	-54
670819.7586	2607436.776	-54
695213.8695	2645953.38	-56
760883.6319	2644203.991	-56
680813.7738	2596944.281	-56
691782.8617	2666924.216	-56
664967.2726	2635076.246	-56
753127.073	2596601.647	-57
747317.3379	2614737.894	-57
681300.6012	2657469.542	-57
692331.8276	2640443.361	-58
747557.4044	2628213.068	-58
707878.8663	2607916.352	-58
744777.9113	2634091.441	-60
681204.1663	2651153.915	-60
703288.5468	2632682.146	-60
748287.8254	2641900.315	-60
708955.809	2628896.702	-62
744881.7347	2648592.346	-62
796208.39	2642144.415	-62
777829.9279	2649227.662	-62
719372.0342	2608245.775	-62
737422.0977	2620181.234	-64
713075.8802	2663569.784	-64
675238.9673	2627019.285	-64
693379.5305	2603006.544	-64
772569.1231	2590182.524	-65
803352.4019	2573870.5	-65
755610.3852	2642855.907	-65
741721.0952	2627173.543	-65
765388.5899	2589517.083	-66
711449.4696	2623034.163	-67
774749.8989	2585585.84	-68
803387.4276	2597619.966	-68
808336.7939	2544832.591	-73
774451.0165	2643600.926	-78
799122.0932	2624726.414	-81
794897.4878	2612694.116	-84
774746.6188	2562127.399	-85
774854.5249	2635350.116	-86
782576.6848	2622685.562	-96
771145.3743	2537868.279	-97
805934.2817	2537883.717	-98
807512.9572	2525674.607	-98
789040.2624	2603472.761	-100
791008.9021	2590971.701	-110
798086.0461	2587828.814	-115
774159.7056	2551736.39	-117
800560.1897	2563861.321	-118
800692.0011	2552888.147	-119
815909.0068	2521522.766	-122
798570.9063	2558501.424	-126
786363.5573	2588106.996	-128
781203.2619	2546157.54	-129
789133.0011	2620982.499	-133
781732.505	2529618.489	-138
801372.6064	2525241.485	-140
799112.4453	2540839.957	-140
800237.2266	2530047.711	-141
787872.2004	2548103.474	-142
787893.1502	2535784.388	-145
790356.3584	2529965.424	-165
809095.9945	2510267.602	-167
796651.8215	2521564.363	-173
794734.7568	2549948.956	-178
815446.2395	2511106.988	-195
818488.4468	2506328.384	-218
766027.4075	2622745.211	-0.3
815025.7427	2613227.259	-0.3
820168.1729	2614260.429	-0.4
764566.8766	2624635.173	-1.6
756615.0031	2601551.346	-1.7
817489.3462	2594258.571	-2
770542.0821	2618235.336	-2
760755.5674	2617477.744	-2.6
774981.0916	2616108.122	-2.7
771848.2726	2618156.004	-3.6
760672.2541	2613439.816	-3.6
811051.0204	2593491.903	-4.5
775164.1932	2610921.359	-4.7
768269.0972	2625943.108	-5.2
753312.2541	2585288.336	-6
816515.6981	2622723.073	-6.1
816906.2205	2590833.457	-6.2
761292.4472	2572059.083	-7.6
764201.9701	2635291.681	-8
773273.6998	2617246.764	-8.1
813310.1619	2569720.85	-8.5
758594.0764	2573904.427	-8.6
816528.2661	2549513.452	-8.8
758650.5703	2610348.391	-8.9
753880.9422	2587036.147	-9.4
812100.0693	2586789.054	-9.4
749989.5751	2572378.312	-9.7
761383.787	2627465.633	-9.9
754858.3608	2579589.186	-10
767036.6028	2578929.608	-10
808510.3673	2608127.086	-10.9
813435.6321	2547662.258	-11.5
760132.141	2609523.779	-11.9
817550.7038	2625727.113	-12
754309.1117	2611330.39	-12.3
755871.8282	2572741.368	-13
813873.2827	2580997.338	-13.1
759864.704	2614099.242	-13.4
808480.0504	2592857.437	-13.5
769564.7821	2626555.115	-13.8
758019.7305	2621351.553	-14.3
769169.3867	2576269.101	-15
760510.999	2634667.564	-15
773494.3197	2623514.545	-15.5
810573.2331	2576383.926	-15.5
758263.9223	2607373.92	-15.7
759499.4016	2603924.091	-16
769386.3412	2632878.216	-16
752377.1121	2590491.908	-16
811131.2246	2572813.976	-16.5
810154.8757	2551028.635	-16.5
761545.5665	2588880.372	-17
781089.5479	2612559.111	-17
809520.2482	2615482.718	-17.7
776471.7724	2622705.371	-18
769043.9984	2602564.352	-18
680074.7055	2564373.029	-18
667711.5121	2562431.081	-18
689166.7338	2561550.104	-18
814648.0463	2628294.283	-18.5
780863.1593	2608308.756	-19
682126.8093	2562321.822	-20
759114.8333	2584854.334	-20
774029.9139	2579754.164	-20
664056.3867	2580547.102	-20.1
707811.2328	2544492.406	-21
749388.7544	2574294.181	-21
760177.7682	2600768.78	-21
818296.5743	2540077.19	-21
807536.9744	2558722.944	-22
806081.2269	2607401.677	-22.5
695765.9673	2563210.112	-23
757827.7547	2605813.551	-23
773712.227	2573282.547	-23
760262.5341	2630195.909	-23.5
737462.2937	2584719.698	-25
775847.9168	2601173.928	-25
776062.0795	2614570.436	-25
807471.6567	2587449.862	-25.5
806376.2896	2572140.121	-25.5
772687.2376	2627222.742	-26
712324.5681	2562207.169	-27
781266.3567	2618731.08	-27
702078.425	2563379.92	-27
751176.7108	2563624.292	-27
679838.5358	2557835.118	-27
670311.5917	2576479.169	-27
756175.0031	2591421.587	-28
755052.538	2575050.701	-28
758991.8344	2622892.447	-29
669774.0284	2565771.528	-29
715218.2847	2564725.827	-29
664999.9528	2573966.041	-29
711803.0897	2567480.803	-29
722105.1959	2569028.177	-29
678578.425	2568808.945	-29
737262.2443	2576042.39	-30
774424.9621	2629415.372	-30
665646.7005	2585517.262	-31
670010.2472	2582770.165	-31
686181.5442	2564282.939	-32
803752.0158	2644456.529	-32
706660.0456	2526801.669	-32
810042.5691	2626326.921	-32
680877.0544	2573567.404	-32
702588.7993	2566777.816	-34
685199.5658	2569977.977	-34
688206.6261	2566867.325	-34
805438.3582	2636685.467	-34
760150.7803	2579448.925	-35
778789.2594	2618500.557	-35
711262.9789	2573216.853	-36
691801.494	2566411.815	-36
673296.7022	2572239.518	-36
756332.3504	2631310.525	-38
664069.7652	2592803.111	-38
818843.5972	2528676.292	-39
748098.2399	2589087.885	-40
672349.3293	2579612.133	-40
754041.9666	2600533.15	-41
682358.4427	2580565.8	-42
710451.4832	2576777.586	-43
698036.8772	2571570.735	-43
671600.9685	2591708.026	-43
740939.8607	2591918.782	-45
752554.9611	2614900.78	-45
679560.208	2587911.421	-45
762467.0245	2598694.506	-45
721487.5271	2565334.48	-45
753546.2838	2620300.807	-47
751481.3872	2605355.465	-47
702107.9087	2658869.131	-47
804160.3828	2611868.222	-48
780708.2574	2597749.536	-48
684818.7012	2588000.766	-49
711679.5633	2657761.695	-49
718778.9538	2656497.844	-49
761791.778	2574608.588	-50
743575.3247	2601643.374	-50
720924.7731	2584841.965	-51
741947.1939	2586530.37	-51
765903.4659	2641435.258	-51
717629.6014	2574231.757	-51
693073.2827	2613727.334	-51
737940.3694	2598047.981	-51
774613.7682	2631508.459	-51
705252.425	2603222.842	-53
701190.5682	2584877.706	-53
706574.0059	2589687.492	-53
698140.1694	2590554.654	-53
699571.0107	2653199.802	-53
673490.8248	2599390.834	-54
665817.2244	2609345.233	-54
678858.2124	2613927.104	-54
663549.6559	2615599.893	-54
765176.6059	2579538.032	-55
746221.0309	2591047.364	-55
688965.2606	2609260.303	-56
777347.5326	2575924.456	-56
718686.257	2649815.122	-56
719145.5424	2603616.103	-56
704975.2172	2638874.235	-58
688815.2439	2650896.338	-58
694108.0116	2664289.568	-58
782576.8384	2645915.54	-60
740569.7864	2643826.197	-60
687792.3432	2641232.188	-60
737497.7417	2612355.45	-61
706010.9637	2612380.322	-62
712079.2464	2601886.441	-62
758462.4252	2594884.21	-62
784376.3391	2604291	-64
718176.4192	2661137.573	-64
714686.542	2636036.351	-64
756574.519	2637744.961	-65
715271.6639	2651657.591	-65
771590.4814	2566732.338	-67
717632.5805	2618973.119	-67
770453.0031	2639020.91	-67
761478.759	2591786.505	-68
812192.2859	2539649.105	-71
791587.6901	2627477.416	-95
782811.2892	2573988.123	-97
784214.3611	2630728.018	-100
809639.495	2535567.612	-102
786669.9866	2605757.71	-104
786932.9158	2594013.192	-109
812248.929	2525464.493	-114
793968.6237	2603964.453	-124
786723.1278	2598821.207	-126
792491.464	2526288.738	-167
818290.7649	2502089.567	-224
811399.6326	2653682.204	-22.5
811849.402	2648516.287	-22.5
