707361.4042	2777195.295	-24.7
708312.552	2776333.071	-17.1
709284.406	2776296.4	-7.5
707753.3388	2776617.382	-26.8
711699.5942	2779770.407	-6.9
711800.9454	2777979.164	-0.9
711955.3112	2777840.642	-3.5
712592.0269	2777815.179	-5.6
712734.019	2777766.426	-0.9
712868.3776	2778342.616	-6.9
712618.722	2779993.029	-5.7
700217.9941	2789244.231	-0.3
699034.1321	2790256.527	-12.8
699006.9676	2791483.484	-13.2
699123.2407	2792300.261	-11.5
698721.0436	2792385.444	-9.8
698942.0696	2792354.871	-2.5
699004.989	2792468.522	-11.1
698555.9354	2792526.829	-10.3
698533.6877	2792943.28	-4.3
697221.1255	2792782.134	-0.8
697836.2051	2792262.812	-3.3
698198.424	2792411.604	-5.1
697822.7031	2791935.666	-3.5
698130.0139	2791984.948	-7.1
698040.6038	2791348.673	-9.6
698504.3606	2791971.84	-11.1
698819.0328	2791562.692	-9.9
698720.9194	2791124.314	-13
698914.8892	2791010.764	-13
698433.5143	2790942.156	-15.3
698063.4707	2791097.02	-13.8
698572.5828	2791578.276	-11.3
697086.4829	2792111.125	-11.4
696836.6089	2791820.757	-0.2
696792.2674	2792209.209	-9.2
697542.9365	2791104.961	-10
696962.6136	2791536.486	-8.5
697351.6192	2791479.078	-5.2
696418.269	2792683.022	-6.7
696090.5301	2792783.083	-4.5
696506.6338	2791884.244	-8.3
696022.2207	2792219.069	-6.2
696193.0639	2791972.318	-3.8
695515.0626	2792525.549	-6.2
697233.0597	2790853.638	-3.7
697633.4069	2792672.98	-3.7
697717.9179	2790785.442	-6.7
697456.4998	2790805.395	-9.4
700198.3248	2784895.104	-12.6
698131.3014	2792938.306	-12.3
697863.2114	2792938.044	-7
697533.3118	2790594.752	-13.9
699114.1289	2790660.236	-14
698798.1921	2790260.68	-5.8
698762.7267	2790559.089	-18.4
698354.9004	2790422.089	-2.9
698889.3176	2792150.235	-4.8
698830.2467	2791899.23	-10.3
694129.9976	2773612.543	-0.5
694740.0882	2773745.705	-1.7
695343.354	2773801.31	-1.9
695081.8628	2773441.229	-1.1
697119.6241	2774790.881	-6.7
697113.9829	2775244.119	-2.5
705743.6094	2773426.283	-27.1
701657.2468	2775616.205	-24.1
705573.2084	2774469.32	-21.8
702219.2734	2775011.958	-31.3
696533.5723	2772886.03	-0.9
702100.3673	2775913.171	-14.4
706206.5011	2776350.469	-8.7
701872.6236	2776502.214	-20
702188.7595	2776514.226	-22.1
705470.0779	2764863.169	-13.3
705571.8552	2765771.435	-17.7
705271.4764	2765464.361	-12.5
706023.3337	2765775.783	-22.2
704974.5167	2765764.93	-10.4
705771.5931	2764871.353	-20.7
702745.9686	2766918.005	-5.8
705825.1634	2765473.592	-23
703470.9372	2766324.954	-5.9
702394.2348	2766015.642	-5.9
702823.807	2765723.127	-5.8
703420.2515	2765729.536	-5.1
705498.5699	2770265.206	-7
705543.7104	2771179.913	-28.5
707393.6754	2763985.976	-32.9
706946.4424	2763981.353	-36.3
706170.5475	2763965.689	-17.3
706752.2468	2764285.58	-36.8
705597.5946	2763995.243	-9.6
705979.4177	2764247.98	-23
707105.7978	2764568.75	-33.7
704646.1179	2764574.227	-9.6
704686.1025	2765147.258	-8.7
703067.7872	2764812.691	-6.6
703821.667	2765136.506	-7.1
703602.5458	2765131.418	-7.3
702311.3131	2764809.433	-7.3
702738.8488	2765110.691	-8.3
704373.5935	2765446.387	-7.9
701708.9145	2764501.658	-3
701838.4599	2765096.173	-6.1
702423.3127	2765411.313	-6.6
702217.1818	2768369.836	-5.9
710611.1905	2768555.085	-16
696509.3224	2775438.283	-1.4
695309.0387	2776197.658	-0.6
695012.3956	2775376.828	-0.6
695320.3508	2775003.279	-1
695004.5207	2774626.258	-0.9
695327.7862	2774249.857	-3.6
696532.0764	2774387.953	-5
694130.0141	2774361.5	-0.5
694427.0899	2774879.181	-0.2
699400.9151	2790200.976	-17.8
700195.8378	2789753.77	-14.5
700080.774	2790571.477	-17.5
699386.1863	2790042.299	-11.2
701168.6256	2789379.285	-16
700922.3628	2788990.432	-2.9
701059.7774	2790821.507	-15.7
700806.5582	2789257.811	-7
700854.1311	2789626.038	-16.5
700600.6879	2789949.295	-16.9
700887.9201	2790307.638	-15.4
700822.9273	2790703.727	-21.3
700483.4248	2790604.55	-16.4
700556.8083	2790855.188	-22
700497.5628	2791049.628	-12
704989.5973	2787503.91	-5.4
700545.7736	2787768.236	-28.3
700517.7295	2787397.208	-9.7
700432.1499	2787784.846	-8.7
701919.7098	2787912.967	-18.3
702159.6851	2789031.985	-17.2
701616.0369	2789294.506	-13.4
701712.786	2788485.289	-7.6
701847.7528	2788795.72	-16.3
702002.8423	2788307.057	-23.5
701947.1056	2788570.767	-19.8
701687.0866	2788102.73	-6.3
700674.4833	2788401.023	-14.4
701509.1056	2788861.392	-15.9
701278.4807	2790314.041	-12.7
701809.0062	2790459.054	-2.8
701722.7538	2790705.817	-5.7
700015.3093	2789039.507	-11.3
700053.8157	2788949.86	-4.4
700048.0632	2788492.638	-0.8
706180.495	2790188.391	-0.5
705535.588	2789952.793	-1.2
705949.5749	2787694.923	-1.5
705157.1463	2787652.748	-3.8
705574.0921	2787794.112	-3.8
704957.1303	2789513.122	-4.3
705469.368	2789395.928	-0.4
704940.1201	2789811.816	-1.7
704839.7527	2787879.92	-2.9
704755.5822	2788004.226	-0.7
704335.204	2790618.798	0.9
704247.4375	2789223.26	-6.9
704323.4556	2789720.228	-1.9
703048.2598	2788998.017	-8.1
703038.4487	2789449.207	-4.7
702757.6852	2790616.745	-0.1
702639.8204	2789736.406	-5.5
701588.4368	2790166.591	-9.7
702339.6599	2790328.011	-1.7
702417.4264	2789956.158	-5.9
702639.9571	2790175.264	-1.6
702061.3562	2790006.335	-5.1
702645.0274	2789286.079	-12.5
701779.1858	2789819.573	-8.9
702327.1612	2784519.969	-15.8
702253.3439	2785812.625	-18.7
704628.2208	2790649.733	-0.2
703741.5653	2788451.307	-2.7
703447.5739	2789154.551	-5.8
703416.5954	2790813.103	-0.1
703943.5512	2789570.975	-2.7
703627.2412	2789996.212	-1.9
704461.5198	2790143.468	-0.9
703459.5257	2788703.381	-10.9
703029.857	2788536.939	-16.1
703827.9452	2790368.598	-1.2
701801.4582	2790823.086	-2.2
699413.3982	2788378.16	-10.8
699866.7374	2789174.14	-0.2
699820.8044	2789292.93	-20.5
700002.2062	2789535.434	-7.4
699728.0535	2789672.207	-8.1
700877.0324	2788573.467	-6.7
700607.5432	2788970.542	-13.9
700407.7611	2789559.7	-10.6
700357.4664	2789147.552	-9.5
700421.4909	2788754.153	-8.2
700378.7709	2788592.91	-2.3
700294.7883	2788170.789	-6.7
700753.561	2788144.35	-9.8
700484.3968	2788085.825	-5
701592.9347	2785904.914	-20.4
699566.2971	2788239.605	0.9
699711.5267	2788187.186	-7
699636.562	2784494.813	-4.6
699516.3673	2791962.633	-3.9
699467.1983	2791411.642	-15.7
699440.3139	2791685.781	-13.3
699271.1167	2791961.462	-5.1
699328.0859	2792189.594	-0.8
702254.2824	2787920.078	-19.5
700014.0447	2791437.993	-6.3
699826.1779	2791222.846	-17
700168.6771	2791015.216	-16.2
699754.4977	2790835.413	-16.8
700138.189	2785479.808	-17.5
700653.4154	2786094.927	-9.7
700287.8914	2787481.889	-10.7
699930.5602	2786807.61	-18.1
699620.7833	2790045.453	-21.6
699793.5926	2788698.868	-6.6
700726.0221	2784791.317	-13.5
705601.8447	2777001.472	-4.1
706026.6709	2777046.937	-7.1
706653.9296	2776898.723	-10.3
706320.9516	2777031.869	-20.9
706288.4773	2776033.24	-3.9
705603.7745	2780994.423	-12.6
706035.5073	2780817.382	-5.5
705513.1714	2780290.141	-9.1
705963.4144	2780402.471	-11.7
706435.3758	2780311.423	-21.4
706433.9792	2779921.048	-8.2
705106.6903	2776013.882	-7.1
704887.8786	2775978.869	-15
704665.4838	2776223.531	-7.6
705410.025	2777747.113	-14.5
705408.3225	2777091.286	-9.6
704471.6485	2777757.096	-6.4
705015.2419	2776516.449	-7.2
705151.4558	2777457.715	-5.2
705063.6648	2776258.19	-3.6
704639.7177	2777188.007	-1.8
704772.5931	2777764.054	-13.3
703844.6824	2777440.543	-7.9
703976.1524	2777013.956	-7.7
704090.1862	2776283.242	-9.1
703866.6389	2776400.417	-1.7
703798.2878	2776870.978	-3.1
704040.8741	2777743.622	-2.1
703078.8365	2778029.977	-11.8
703306.9661	2779236.595	-15.1
703569.419	2779839.182	-13.4
702976.0479	2778931.229	-11
703134.1174	2780130.926	-16.8
703336.1501	2777424.71	-9.3
703527.1993	2777131.389	-5.3
702940.0819	2777127.821	-13.2
702016.9256	2777714.372	-7.5
701746.3287	2777409.316	-15.5
702646.2388	2777873.177	-14.8
702092.1818	2777103.328	-16.2
702741.9204	2776710.641	-26.4
702695.4459	2776225.856	-26.7
700297.4696	2776788.281	-8
700273.0466	2777682.221	-6.3
700443.6857	2777983.636	-5.1
700604.3728	2777675.812	-3.4
700776.5272	2776196.554	-10.7
700784.2335	2777392.058	-5.7
700552.4825	2778590.343	-7.5
700539.0063	2779194.33	-5.6
700581.2357	2779785.372	-8.4
700700.149	2780388.485	-6.2
701345.4466	2783702.042	-19.8
701391.2828	2782501.164	-19
700933.6381	2783903.877	-18.7
701118.2014	2783298.07	-19.1
700995.7996	2782194.077	-16.3
700836.3964	2781301.949	-11.5
701034.8182	2780997.813	-21.5
705448.863	2779075.053	-11
705182.2504	2778977.103	-4.2
705200.3619	2779273.509	-7.6
705034.4726	2778360.012	-16.8
704666.3689	2778358.433	-11.6
705257.7209	2780848.924	-7.8
704726.9965	2779255.709	-5.4
704708.1968	2779795.87	-1.9
700164.1105	2777249.039	-5.3
699877.6137	2776173.891	-7.1
699846.7912	2776778.008	-6.2
699828.1252	2777967.577	-2.4
699827.5199	2778196.011	-9.5
700010.6781	2778226.454	-2.1
699714.2186	2778580.497	-2
699936.3732	2783075.758	-7.4
699996.3208	2778872.225	-7.2
699955.9671	2780975.51	-7.1
700097.4048	2782180.83	-8.4
700122.1598	2780373.568	-5
699989.5429	2779478.715	-7.9
700108.6091	2783679.819	-9.1
699915.1628	2780078.692	-8.1
699787.5644	2784072.974	-6.1
702560.0251	2779219.976	-13.2
702483.2654	2783127.473	-14.5
702599.3015	2782828.583	-13.7
702497.5643	2782228.248	-17
702831.2832	2784325.339	-1.3
702597.6338	2783922.783	-11
702597.9679	2781628.418	-18
699672.5825	2777675.847	-4.1
699569.9817	2778287.692	-1.7
699297.7383	2783319.132	-1.4
699535.2166	2779474.188	-3.5
699563.2555	2783694.668	-4.3
701696.4219	2779502.064	-16.5
701785.1125	2778909.596	-11.9
701711.9019	2780104.29	-18
701605.497	2781008.695	-17.9
702380.0124	2780722.269	-15.6
701821.5893	2785512.644	-20.3
701701.268	2786512.503	-19
701540.7571	2787407.485	-6
701779.6522	2784272.484	-20.7
702120.2238	2785109.824	-21.9
701887.4372	2783111.906	-21.7
701699.8156	2782811.553	-20.9
702132.5801	2782516.431	-18.8
702105.526	2781915.669	-18.5
702067.8462	2778312.013	-11.5
702224.3565	2778904.517	-16.8
702240.3671	2779510.443	-15
704509.9091	2779556.238	-3.4
703877.1861	2779549.797	-17.2
704561.2574	2780117.227	-0.6
702979.501	2780724.181	-19
703256.2339	2781040.879	-15.9
703702.4583	2780730.417	-9.6
703426.2816	2783333.333	-0.4
703064.8751	2783524.877	-0.7
702915.8582	2783520.524	-2.5
703768.4036	2782354.249	-3.9
700596.1198	2786836.294	-4.5
700804.11	2782786.102	-14.4
700428.1369	2786591.489	-12.3
700378.7144	2786883.705	-9.3
700219.3422	2785681.895	-20.5
700470.9752	2783585.157	-10
700299.891	2781578.869	-8
700490.1	2783880.246	-10.5
704198.1423	2781675.51	-5.1
704087.1858	2782566.973	-1.7
704492.5585	2782293.458	-4.4
704734.6188	2781991.855	-5.2
701958.2624	2787226.853	-20.1
702003.1378	2786116.469	-24.7
701929.7988	2784713.432	-21.4
702207.6167	2787020.217	-18.2
702299.7805	2786316.879	-22.1
702323.1374	2786160.86	-18.9
702183.7795	2784116.615	-18.5
702337.5451	2785521.54	-20.2
702365.4617	2785325.641	-16.7
702417.6356	2785240.459	-11
702637.7457	2788243.069	-19.3
702653.2197	2788839.731	-19.6
701249.9416	2786341.514	-4.8
701351.5517	2784298.489	-19.7
701133.7283	2786943.919	-6.4
700961.8385	2786427.472	-6.4
703744.0747	2784180.764	-0.1
703762.5602	2783740.502	-1.2
703546.9131	2784541.213	-7.4
703897.8929	2783112.647	-2.1
703701.028	2783431.964	-4.3
703489.4501	2783940.064	-6.1
703329.1218	2784325.153	-1.4
702981.3953	2784113.264	-5.2
703550.0219	2785249.455	-6.3
703825.9848	2785244.138	-0.8
703756.4461	2785408.93	-2.8
703579.7738	2785643.753	-10.6
703850.6592	2788857.675	-6.7
704129.7443	2788336.454	-3.4
702504.0177	2787421.823	-19.9
702892.6115	2787443.478	-9.2
702815.7214	2788121.693	-21.8
702543.3634	2786541.81	-18.3
699695.9868	2786985.506	-7.5
699902.112	2787187.269	-6.7
699835.386	2787785.488	-6.2
699678.8438	2787384.229	-7.8
699675.3919	2786582.835	-6.9
699856.579	2786366.654	-0.7
699710.7541	2786209.973	-2.7
700067.9383	2786689.503	-18.2
700158.2716	2786371.708	-27.7
699923.7389	2787560.339	-4.8
703651.545	2786326.114	-0.3
704218.1423	2786228.545	-0.6
704227.1163	2786787.406	-11.8
704278.7438	2787123.778	-4.1
704115.7794	2786528.782	-8
706596.692	2778462.604	-1.3
706375.412	2778068.232	-11.8
705603.3902	2777424.268	-8.5
706133.7747	2777467.961	-10.3
705921.2231	2778090.334	-7.1
705897.2896	2778624.645	-7.4
705682.2735	2778927.306	-4.3
704362.8507	2777019.139	-5.6
704273.459	2776878.091	-4.6
704263.7301	2776590.306	-12.3
704591.6436	2776854.809	-4.3
700913.2037	2777995.739	-10.4
700885.1388	2778887.146	-9.7
701195.2355	2777094.635	-10.7
700975.9599	2780090.045	-5.1
701497.8772	2776801.706	-15
701318.0685	2777699.451	-12.4
701229.533	2778304.492	-9.9
701321.683	2778899.988	-6.9
701360.7888	2780400.072	-16.7
701029.5523	2780693.718	-10.3
704663.8041	2781044.598	-4.5
703922.1159	2781618.929	-4.6
704614.5064	2781524.434	-8.7
704888.102	2781357.174	-13.9
703098.2016	2776075.34	-15.8
703521.2949	2776587.127	-2.2
703303.8319	2776523.794	-10.8
703476.6062	2776331.454	-6.2
699567.5857	2787571.856	-3.7
694993.5671	2776565.578	-0.3
695284.8929	2777095.285	-0.2
697098.4328	2776742.257	-1.7
696776.6249	2777038.657	-1.2
697375.6507	2777671.664	-1
696206.7923	2775835.66	-1
695895.4331	2776339.364	-0.9
696186.8198	2776884.667	-0.9
698664.6308	2780346.429	-0.3
699094.4762	2780062.396	-1.8
699452.8079	2780664.72	-4.9
699113.4404	2779162.437	-1.3
698661.5732	2779155.527	-0.7
698620.6788	2778551.394	-1.1
699220.4989	2778556.796	-2.1
699108.1027	2780965.826	-2.8
699755.1282	2782773.999	-5.7
699152.4111	2781562.931	-4.6
699749.1738	2781581.435	-6.6
698692.1832	2781550.105	-1.1
698901.698	2782152.306	-2.4
698886.639	2782723.16	-1.2
699442.5317	2787950.992	-2.1
699419.5831	2787646.494	-0.6
699022.0965	2776458.471	-4.5
698573.3626	2776461.083	-3.7
697991.1628	2776515.139	-2.6
698894.6529	2777353.673	-3
698965.5609	2777948.857	-2.6
699346.1784	2777366.678	-3.8
697970.7058	2777566.232	-1.4
697668.9405	2777973.897	-0.6
697960.37	2778466.444	-0.3
708771.2478	2768816.527	-20.3
708468.4109	2774518.748	-12.8
708645.452	2773016.307	-13.8
708767.3063	2769114.397	-11.8
708588.2378	2772427.438	-12.2
703701.6069	2771393.084	-3.8
703452.0762	2772391.448	-4.8
703091.9615	2771841.419	-0.8
703444.0808	2772088.33	-9.5
703097.9873	2771395.391	-1.5
703668.7647	2772654.039	-23.9
708117.9132	2765513.133	-26.1
708152.7501	2764606.909	-25.7
708117.6462	2766414.662	-23.9
708292.7959	2764010.299	-24.5
708203.8515	2768214.522	-25.7
708382.7533	2767611.034	-20.1
708113.8556	2770917.888	-13.7
708448.2222	2767020.151	-20.7
704897.0781	2771138.765	-9
704920.2028	2771713.103	-2.7
707846.7146	2767007.644	-24.6
705597.2253	2766970.606	-14.8
707503.1498	2767299.139	-22.4
706585.6432	2767597.216	-17.8
705949.0511	2767871.489	-15.9
705201.0536	2767860.859	-11.6
707449.4478	2767901.485	-29.6
707162.7931	2768488.375	-30.9
705813.6214	2768473.836	-14
707897.7107	2768633.526	-21.6
705207.3953	2768760.479	-10.6
706406.5557	2768784.633	-19
707934.1066	2769411.181	-29.9
707857.1492	2769875.749	-31.1
706625.2625	2770287.692	-32.2
706763.7165	2769689.474	-33.3
707246.5551	2769648.258	-30
703888.8873	2772216.103	-2.5
703717.5443	2773188.729	-8.4
704377.896	2772917.889	-17.7
703973.4011	2772686.962	-14.6
704128.1957	2770536.12	-7
705865.1128	2769676.223	-16
706434.7771	2769382.054	-23.6
707753.6467	2768211.645	-27
707032.4203	2769398.418	-33.2
706549.8236	2772088.272	-31.6
706515.0437	2770896.689	-33.8
705173.7483	2772040.062	-26.1
705237.3501	2771422.178	-6
704729.0157	2772334.561	-13.7
704694.9248	2772143.942	-4.9
705060.4741	2770255.279	-8.4
705415.7131	2769665.794	-12
704729.4764	2770570.753	-5.8
704662.2998	2769656.633	-7.5
707960.7127	2771495.71	-21.1
707973.8465	2771815.71	-19.4
707946.7309	2772413.996	-13.6
706605.3681	2773035.626	-32.6
707284.1208	2771195.489	-26.2
706954.5836	2771555.494	-30.8
706908.6023	2771790.986	-29.7
707104.7218	2772098.804	-29.7
706727.3057	2773586.985	-18.7
707154.8888	2773297.511	-14.9
707916.373	2775107.063	-21.5
706359.0883	2764887.518	-26.4
706471.6948	2765781.927	-31.2
706187.4693	2766674.234	-24.5
706759.1526	2765183.584	-36.8
707842.217	2764004.987	-26.9
707292.9856	2765191.964	-25.9
707835.7246	2765197.441	-26.7
707370.8014	2765799.759	-28.5
706857.6811	2766381.211	-20.8
707557.1759	2766695.546	-24.5
703653.1585	2769934.541	-6.5
703359.8351	2770531.991	-7.9
703200.5912	2770938.873	-5.1
703622.0662	2770935.383	-11.7
703985.9737	2773703.813	-24.7
704376.1094	2773546.388	-22.3
704701.8962	2773268.442	-25.8
705266.4785	2773564.028	-32
706045.9317	2771184.729	-34.4
707845.4533	2770446.268	-24.2
705229.3257	2771692.117	-11.3
705476.7134	2770561.517	-14.8
705927.4573	2770561.895	-30.2
703749.7788	2774176.543	-30.5
703390.9666	2774137.627	-11.2
703103.599	2774135.796	-5.8
704430.3937	2773853.561	-32.6
705064.0549	2773979.919	-19.9
705479.8949	2775397.798	-9.9
704795.2196	2775059.546	-21.1
705258.7355	2774768.752	-22.4
705073.8685	2774463.634	-21.1
704898.6779	2773858.445	-22.6
705760.7654	2764332.327	-4.6
705017.7422	2764222.871	-12.1
704506.6065	2763959.686	-7.1
704265.5253	2764238.205	-10.2
707879.0516	2775714.207	-25.6
707867.758	2774513.541	-14.1
707352.5618	2774205.499	-8.8
705720.7327	2775732.72	-3.4
705930.9795	2775102.273	-10.8
706273.8628	2773589.89	-31.7
707556.4817	2775401.475	-10.4
707124.5099	2775401.005	-4.3
707070.551	2776001.167	-8.5
706433.0028	2775816.398	-6.3
706604.7415	2774185.609	-11.9
703016.9448	2774730.629	-23.1
704155.661	2774230.206	-26.2
704355.7524	2774867.159	-21.3
703918.364	2775348.734	-21.3
704406.6624	2775357.872	-36.5
704200.314	2775916.392	-10.6
703507.4026	2775555.835	-22.5
703557.885	2775034.618	-28.6
705057.7234	2775841.714	-2.9
704730.8327	2775772.125	-3.7
707519.7911	2776007.997	-20.9
703708.3412	2768135.264	-6
704914.7095	2768453.932	-9.4
704485.3868	2769343.604	-7
704651.6163	2769045.153	-8
708435.513	2771077.521	-5.1
708436.3353	2770623.731	-21.9
708489.5345	2770016.92	-19.9
708217.3281	2773918.108	-16.8
708219.9981	2772722.997	-14.3
708056.0967	2773306.95	-13.1
703709.5527	2771699.272	-6.8
703974.5594	2771097.494	-11.8
704079.0291	2771457.918	-9.9
709943.8304	2764940.774	-18.9
711002.6988	2764660.275	-17.2
710516.104	2765548.87	-17.1
710197.4042	2766143.264	-17.3
711548.2515	2764367.34	-18.2
711439.7927	2764965.004	-17.9
710972.4816	2765868.825	-17
710079.7396	2766748.685	-17.1
711246.8426	2766171.932	-17.7
710980.0851	2766761.924	-16.7
711716.3872	2765580.499	-17.5
713166.8437	2764699.588	-17.4
711694.6707	2766195.033	-16.5
713230.8211	2765297.479	-17.1
712915.7346	2765592.078	-16.7
713367.6098	2765904.099	-17
714112.736	2765598.526	-17
714096.394	2765002.912	-17.3
713947.5528	2764407.036	-17.4
712030.7999	2768578.239	-6.7
712028.5052	2766776.595	-17.3
712183.2069	2765284.257	-16.7
713758.889	2768610.026	-19.8
713515.1368	2766506.6	-17
712932.4385	2766794.896	-16.8
712616.4487	2766482.846	-15.7
712616.3979	2765896.082	-16.9
713832.3822	2766815.311	-17.1
714268.6573	2766815.117	-17
712353.0394	2768878.704	-18
714012.3423	2770552.746	-8.4
714199.7712	2769225.853	-21.8
714028.3239	2770117.169	-20.7
713562.7028	2770109.587	-13.7
713364.6316	2769794.265	-24.1
712898.2552	2770089.456	-21.7
712720.2995	2770678.761	-15.9
713415.1663	2771309.419	-1.1
713086.4314	2770998.201	-3.5
713114.697	2770731.595	-6.7
712749.3484	2771185.204	-5.6
712312.924	2771637.705	-3.3
709351.9539	2774240.872	-8.3
710619.1419	2776015.249	-3.8
711876.6344	2777211.636	-2.7
712239.2692	2772705.539	-1
708936.3956	2776053.729	-4.1
709022.3939	2773925.837	-12.4
709435.0147	2773937.961	-4.4
709441.9604	2773345.835	-5.4
709694.8743	2773368.03	-9.4
708952.2335	2773326.735	-9.9
708868.56	2765519.673	-21.3
709043.9626	2764909.309	-21.8
708849.0521	2766138.225	-20.5
709151.2286	2764322.602	-21.3
709298.7381	2766117.591	-18.6
709099.35	2767339.61	-19
709491.2121	2764931.095	-20.1
709478.3958	2768540.737	-18.5
711368.5235	2772519.94	-2.3
710912.0689	2772161.351	-14.8
710474.7622	2773053.853	-21.5
710984.2632	2773374.165	-2.9
710965.7894	2772792.305	-9.5
710812.9454	2770655.311	-19
710756.3939	2770958.093	-9.7
711309.9259	2770665.725	-13.7
711320.7647	2771563.415	-17.7
710956.4262	2771561.453	-20.4
712437.8512	2769785.33	-18.6
712570.037	2769194.623	-20.9
712055.3726	2771283.667	-6.6
711714.9162	2768871.858	-13.4
711564.8557	2769772.09	-14.8
712086.2595	2771908.522	-2.5
712573.7601	2770388.075	-20.3
710748.3641	2769160.66	-18.2
711129.4181	2769766.578	-17.1
711350.5952	2769160.766	-17.3
710244.0034	2771848.027	-20.2
712242.0185	2770387.497	-15.8
710231.103	2774550.34	-7.7
710567.2706	2774849.969	-6.7
710881.4687	2774438.034	-4.9
710912.8086	2775114.636	-3.4
711219.4143	2774543.945	-1.1
711025.7712	2775602.375	-1.2
709699.9526	2775737.509	-8.7
708893.5673	2774827.286	-13
710020.4898	2775150.893	-8.5
710627.8246	2773990.183	-8.7
710023.7847	2773945.79	-10.6
710607.5157	2773665.23	-11.7
710212.0565	2769143.859	-14.9
709794.3818	2769450.895	-16.7
710079.279	2770951.324	-18.5
710332.6458	2770649.129	-21.1
710005.1292	2770334.94	-19.8
709937.1241	2771543.3	-22.8
709183.4888	2769761.392	-9.5
709430.7037	2769322.624	-4.4
709360.4799	2769185.119	-9.5
709520.2521	2770072.053	-16.9
708864.7536	2769728.131	-17.2
709369.2153	2768833.605	-21.4
709182.1773	2770624.453	-14.2
708924.6398	2771081.633	-5.1
708932.2921	2771378.983	-4.4
709183.468	2771178.061	-12.4
706000.464	2772378.09	-33.7
705496.0042	2772362.553	-30
712440.9393	2772216.784	-2.6
711651.901	2771876.766	-6.1
708834.7023	2771874.015	-11.1
709106.2132	2771759.763	-3.4
709315.8295	2771881.07	-14.7
709308.8757	2772454.028	-9.9
710160.3102	2772448.195	-18.8
709685.2997	2772441.802	-21.4
701809.9666	2767194.762	-5.7
702686.1636	2767516.305	-6.1
703137.8321	2767521.784	-5.9
711047.1104	2767960.182	-16.1
709999.4326	2767346.676	-18.4
710749.9054	2767357.305	-16
713303.7	2768300.114	-19
711586.8587	2768271.011	-14.7
713180.6006	2767698.072	-17.6
711650.3537	2767383.107	-17.7
712849.046	2767387.656	-16.8
713745.6678	2767402.852	-17.3
712851.5618	2767990.876	-18.2
710395.6378	2767050.561	-17.8
710148.9542	2767946.965	-18.9
712097.0224	2767378.118	-14.1
712399.7694	2768287.268	-15.3
706026.8698	2771781.016	-38.3
679235.2923	2743742.115	-3.8
678890.9206	2743378.387	-1.4
682004.9635	2747150.572	-2
677873.7151	2745882.42	2.6
675518.5278	2749575.883	0.5
680184.5745	2742188.449	0.7
677538.9466	2745147.503	0.1
678294.0185	2745638.457	0.1
676797.5551	2750826.771	-0.1
675796.5995	2749492.255	-0.1
671833.1296	2747266.734	-0.1
674397.677	2746548.06	-0.2
669111.6649	2750731.572	-0.2
669630.1794	2757562.047	-0.2
671457.7927	2747607.985	-0.2
674553.6616	2745207.818	-0.3
677298.9448	2743445.086	-0.3
671975.6995	2746737.531	-0.3
669371.2602	2756664.563	-0.4
674788.8977	2749175.235	-0.4
682040.5039	2752792.939	-0.4
680412.6033	2751082.757	-0.4
678984.8894	2742640.216	-0.4
678033.3196	2748189.946	-0.4
676556.1244	2746280.61	-0.4
675546.0095	2745756.019	-0.4
679034.4847	2749305.436	-0.5
683898.5471	2751811.66	-0.5
677519.1128	2751053.574	-0.5
675043.2685	2743924.838	-0.6
678293.4529	2745544.395	-0.6
675544.5751	2743228.717	-0.6
683047.3564	2752704.908	-0.6
673243.7354	2749112.022	-0.6
678440.437	2742723.952	-0.7
677792.1857	2742832.815	-0.7
675042.6964	2750182.785	-0.8
675547.3933	2743727.58	-0.9
672385.2357	2746489.728	-0.9
689481.717	2753967.866	-0.9
670594.3158	2750941.193	-0.9
682538.9297	2752493.36	-0.9
680306.7422	2751501.441	-1
675054.7148	2744425.826	-1.1
681387.9188	2751525.269	-1.1
690028.6626	2755463.75	-1.1
681544.1156	2752031.982	-1.1
685198.7798	2749999.853	-1.1
675431.3358	2746698.658	-1.3
673899.5355	2748337.243	-1.3
674276.1654	2749344.86	-1.3
676063.7571	2743448.387	-1.3
683039.7534	2752206.021	-1.4
679727.999	2742258.276	-1.4
669609.7458	2750831.459	-1.4
677057.3634	2745907.254	-1.5
671309.8555	2749450.277	-1.5
679626.6552	2746318.458	-1.6
674053.6726	2749816.772	-1.6
675545.6056	2744727.971	-1.6
676042.1013	2745007.831	-1.8
682050.6468	2751812.519	-1.9
679539.8443	2751131.608	-1.9
671795.5299	2747897.359	-2
676526.153	2745285.523	-2
678063.169	2749617.921	-2
671057.8913	2749971.91	-2.1
676038.3422	2744006.635	-2.2
680289.8222	2748169.955	-2.3
685545.6942	2753356.811	-2.3
688033.9551	2754658.922	-2.3
676574.6793	2749836.651	-2.4
673269.4689	2748459.691	-2.4
682050.365	2751315.217	-2.4
670706.0681	2753772.77	-2.5
679044.2931	2745435.398	-2.6
687017.0251	2754223.052	-2.6
672566.1182	2748529.409	-2.7
683041.4508	2751658.45	-2.7
681550.3349	2751020.959	-2.8
672170.8652	2747556.382	-2.8
677043.0032	2744529.465	-2.9
681540.7959	2747441.877	-3
678661.8618	2746424.138	-3
676541.9979	2743787.042	-3.2
683035.0606	2751161.574	-3.2
677546.7516	2750466.413	-3.2
689029.1223	2754565.855	-3.3
677559.7903	2745384.698	-3.3
677031.9702	2750184.317	-3.3
678051.0806	2750140.274	-3.3
672397.3547	2749058.712	-3.4
681049.3536	2747312.137	-3.4
689524.8547	2754765.001	-3.4
682543.8233	2750473.242	-3.4
686047.823	2753107.721	-3.4
682043.4711	2750317.185	-3.5
688542.7767	2754330.005	-3.5
681037.4668	2747810.936	-3.5
682022.7851	2747822.895	-3.6
670768.8888	2754321.52	-3.6
687547.717	2753873.051	-3.6
672025.8901	2748725.725	-3.6
678312.6376	2747325.81	-3.7
681802.8694	2746706.114	-3.7
684529.176	2751513.382	-3.7
683537.3539	2750997.485	-3.8
679035.1492	2750821.115	-3.8
670764.8299	2751534.338	-3.9
678544.2258	2749992.389	-3.9
678534.5171	2750467.74	-3.9
681051.5785	2746813.445	-4
681038.2381	2750309.027	-4.1
678044.3621	2744652.417	-4.1
677540.7337	2744355.347	-4.1
685294.9989	2750649.987	-4.1
687038.4177	2753228.629	-4.1
677062.8316	2747622.852	-4.1
687543.638	2753371.182	-4.2
678047.5812	2745132.442	-4.2
680561.209	2750659.812	-4.3
682045.9755	2749819.877	-4.3
680544.6807	2749205.941	-4.3
688541.5116	2753828.448	-4.3
679052.6491	2750314.878	-4.3
678054.3054	2743190.111	-4.3
680759.1123	2741518.273	-4.3
683042.762	2749663.815	-4.4
684055.9642	2749650.621	-4.4
679536.3623	2750111.482	-4.4
679046.4139	2749814.893	-4.4
677533.6881	2747020.655	-4.4
671028.9587	2753058.525	-4.4
671670.8294	2749094.661	-4.4
679557.828	2749612.643	-4.5
681033.8909	2749807.82	-4.5
681037.5694	2748812.361	-4.6
678544.3808	2744282.584	-4.6
672651.1427	2747300.33	-4.7
679547.0919	2745282.253	-4.7
677018.8925	2746310.442	-4.7
686547.2538	2752346.604	-4.7
682028.4772	2746329.568	-4.8
684051.6413	2751212.724	-4.8
680046.9199	2749799.711	-4.8
682539.8047	2749472.642	-4.9
682549.407	2747479.813	-4.9
684559.4482	2749516.792	-4.9
687033.985	2752169.243	-5
682546.0905	2746981.309	-5
688542.7236	2753276.575	-5.1
690521.3339	2754505.114	-5.1
676028.9146	2750106.159	-5.2
678041.8899	2744153.551	-5.2
687543.2888	2752294.048	-5.3
690678.0469	2754087.301	-5.4
682047.1823	2748824.126	-5.4
686056.2773	2752144.049	-5.4
679048.9347	2744920.629	-5.6
684546.046	2751012.746	-5.8
689041.5913	2753121.817	-5.8
682539.0363	2748474.291	-5.8
685062.5965	2751472.518	-6
683040.3035	2747666.287	-6
680049.704	2747444.19	-6.1
683547.3988	2749003.373	-6.1
689043.3656	2752623.049	-6.3
686541.0422	2751360.799	-6.4
687541.8663	2751298.151	-6.5
678537.4747	2747727.26	-6.7
690049.343	2753102.401	-6.8
686528.7453	2750861.272	-6.8
687539.8045	2750795.967	-6.9
683044.4326	2746665.84	-6.9
683557.118	2747509.454	-6.9
683547.3747	2748012.098	-7.1
684050.2201	2748653.725	-7.2
688546.2592	2751309.835	-7.2
686544.9891	2749868.326	-7.3
690034.1189	2752604.161	-7.3
680547.4686	2745961.34	-7.4
689543.2001	2751864.792	-7.5
681549.8194	2745574.864	-7.5
688048.2609	2750577.482	-7.5
680788.1141	2745541.473	-7.6
691042.2359	2753055.678	-7.6
680046.9764	2743110.414	-7.7
689039.5559	2751123.21	-7.8
690055.159	2749918.314	-7.9
685032.1517	2748987.878	-7.9
679539.8801	2743292.737	-8
688054.3345	2750076.14	-8
680042.5594	2744093.039	-8
683036.051	2746166.725	-8.1
685537.3503	2748748.121	-8.2
680055.0959	2743599.971	-8.3
684548.5833	2747764.672	-8.3
675041.9399	2746877.255	-8.3
690041.2843	2751605.852	-8.3
689047.1803	2750621.398	-8.4
690544.9328	2751864.896	-8.6
687550.7695	2749299.194	-8.6
687045.6207	2749140.85	-8.6
682543.0092	2745482.709	-8.8
685538.8091	2748186.422	-8.8
689544.0151	2750863.55	-8.8
685544.263	2747686.265	-9.2
687042.6933	2748644.675	-9.2
689041.2928	2750124.722	-9.3
684543.9359	2746763.091	-9.3
691043.6626	2751561.013	-9.4
686540.8699	2748369.218	-9.4
680509.6679	2743971.511	-9.5
683551.7297	2746022.573	-9.6
688538.266	2749311.656	-9.8
684037.5021	2746139.114	-9.8
679053.4746	2747451.05	-9.8
686540.2247	2747871.78	-9.9
685044.6847	2746575.839	-10.1
690549.081	2750866.998	-10.2
687545.5352	2748301.763	-10.3
680550.9757	2744973.743	-10.3
689543.2701	2749863.486	-10.3
683045.897	2745173.104	-10.5
686039.4272	2747007.376	-10.5
689046.0987	2749125.446	-10.6
674033.641	2747820.194	-10.6
691048.0769	2750564.623	-10.8
677551.6213	2746535.638	-10.8
682035.7627	2744832.563	-10.9
686046.4133	2746507.959	-11.1
688541.7394	2748314.327	-11.1
686543.5462	2746872.844	-11.2
684546.6864	2745264.276	-11.3
689035.3902	2748627.374	-11.3
684050.0468	2745140.437	-11.3
687055.423	2747143.633	-11.4
691050.3846	2750067.765	-11.5
690044.6752	2749110.426	-11.6
685545.1884	2745689.247	-11.8
688539.4801	2747810.732	-11.8
682553.5583	2744491.85	-11.8
684044.2014	2744644.601	-11.9
685052.0633	2745076.805	-12
676543.7037	2746993.711	-12
691046.6737	2749565.76	-12.1
687550.9342	2746801.317	-12.2
681526.7339	2744314.341	-12.3
688041.7182	2747087.617	-12.3
684031.7731	2744144.566	-12.4
689042.6807	2747632.069	-12.5
683544.1955	2744043.522	-12.6
687044.548	2746143.66	-12.6
689545.5467	2747867.478	-12.6
681035.4909	2742086.148	-12.7
685047.108	2744573.829	-12.7
687541.3866	2746304.719	-12.9
686041.4422	2745009.228	-13
687044.1606	2745646.658	-13.2
691042.4204	2748570.627	-13.2
681546.3766	2743593.287	-13.3
685043.6439	2744073.423	-13.3
683039.3208	2743673.76	-13.3
688050.5256	2746086.41	-13.5
690048.8357	2747609.287	-13.5
687033.4019	2745145.924	-13.6
686540.2955	2744874.342	-13.6
688541.104	2746315.026	-13.6
690547.2926	2747868.58	-13.7
676048.1243	2746807.926	-13.7
684037.648	2743149.738	-13.8
683543.4766	2743045.019	-13.9
685033.5624	2743573.67	-13.9
689537.1341	2746869.639	-14
686046.0142	2744008.83	-14.1
687039.6783	2744645.155	-14.2
691035.3775	2747590.884	-14.5
686043.8352	2743510.2	-14.6
689539.4745	2746366.327	-14.6
686546.1465	2743876.242	-14.6
681540.207	2743095.626	-14.6
685544.1336	2743193.532	-14.7
688045.0216	2745088.988	-14.7
687036.7648	2744146.789	-14.8
683555.4385	2742545.787	-14.8
673470.6376	2747337.55	-14.8
690534.4023	2746869.132	-14.9
689047.1804	2745633.255	-14.9
682052.991	2743216.532	-15
688052.8827	2744586.709	-15.1
684543.4348	2742270.328	-15.2
686539.9528	2743375.008	-15.2
685546.8009	2742690.359	-15.3
689042.8322	2745133.633	-15.5
682550.1838	2742996.033	-15.6
690534.9112	2746372.154	-15.6
689543.7524	2745369.562	-15.7
686044.548	2742512.434	-15.9
686537.8174	2742873.552	-15.9
690010.6367	2745620.814	-16
689047.8624	2744634.616	-16
684045.8754	2741653.146	-16.2
674552.8628	2747401.536	-16.3
681542.9334	2741474.093	-16.4
688044.3315	2743589.402	-16.4
685550.0059	2741693.084	-16.5
682553.1918	2742460.301	-16.5
683539.9204	2741550.812	-16.5
688542.6707	2743815.113	-16.5
686537.4336	2742374.136	-16.5
690042.326	2745128.023	-16.6
690540.5002	2745377.95	-16.7
687542.7702	2742813.406	-16.8
689552.1474	2744368.721	-16.9
691038.1801	2745643.384	-16.9
682045.2471	2742221.192	-17.1
686046.5268	2741513.356	-17.2
687052.6586	2742145.634	-17.2
690039.0338	2744628.391	-17.2
688542.3654	2743315.471	-17.2
689048.812	2743635.904	-17.3
687542.9142	2742315.78	-17.4
691040.2734	2745143.323	-17.5
688545.0725	2742818.885	-17.6
690547.402	2744379.843	-17.8
689541.3515	2743374.633	-18
682542.4431	2741502.511	-18.1
691041.3756	2744640.922	-18.1
690045.6851	2743625.662	-18.3
689542.3626	2742874.485	-18.6
690531.1169	2743385.44	-19.1
689539.0769	2742372.473	-19.2
691044.994	2743644.009	-19.3
689040.3049	2741636.579	-19.5
690541.275	2742886.436	-19.6
689538.7721	2741875.068	-19.7
690548.439	2742385.074	-20.1
671311.0787	2748451.745	-0.1
677539.0737	2747984.559	-0.3
667892.4089	2750463.574	-0.3
668487.9589	2750659.39	-0.3
669861.963	2750716.667	-0.3
678710.144	2745915.343	-0.4
671429.5242	2746649.149	-0.4
671962.9745	2746104.45	-0.4
676571.1567	2746059.912	-0.4
676028.4476	2750481.486	-0.4
681533.7652	2752528.622	-0.5
673525.0071	2748793.56	-0.5
675047.1568	2746385.442	-0.5
678174.0592	2745833.419	-0.5
681065.1018	2751745.652	-0.5
679662.158	2748393.818	-0.5
680719.1195	2751737.295	-0.6
672749.6632	2746414.983	-0.6
675044.5818	2745426.298	-0.7
674801.1149	2749475.017	-0.7
681048.816	2752133.726	-0.7
684053.5154	2751947.133	-0.7
676024.2627	2743075.658	-0.8
679538.9574	2749090.881	-0.8
679241.8121	2747823.325	-0.8
678533.7409	2751039.491	-0.8
678531.1417	2745623.48	-0.9
676536.5738	2749478.34	-0.9
672265.9857	2746981.352	-0.9
671866.0838	2747640.771	-0.9
677027.5875	2750683.606	-0.9
676657.8148	2750507.838	-0.9
672046.722	2748095.178	-1
667390.5624	2750149.23	-1.1
684554.8831	2751851.185	-1.1
679020.6066	2751157.366	-1.2
678276.6197	2742335.6	-1.2
670112.8845	2750624.47	-1.2
674024.4592	2749071.787	-1.3
676051.0223	2749608.851	-1.3
678036.2563	2751011.963	-1.4
677709.8742	2743203.73	-1.4
675555.3416	2746381.468	-1.4
690559.0367	2755104.714	-1.5
684308.924	2751621.991	-1.6
677499.1235	2750790.566	-1.6
675033.6507	2749434.77	-1.7
691052.9527	2755121.221	-1.7
677081.2473	2749691.679	-1.8
678798.7055	2745770.059	-1.8
685312.9428	2749769.104	-1.8
685542.7573	2753857.294	-1.8
677046.7749	2745028.311	-1.9
684950.3986	2749684.682	-1.9
680043.5969	2748476.049	-1.9
678029.5306	2745469.298	-1.9
685562.0954	2748951.279	-2
673542.262	2749199.901	-2
689555.0008	2753591.064	-2.1
676007.5985	2746438.074	-2.1
671552.2154	2750232.175	-2.1
684548.5603	2749228.684	-2.2
673108.9022	2746895.312	-2.2
677753.4231	2745667.082	-2.2
671893.4884	2749927.674	-2.2
678042.1233	2742715.003	-2.3
680539.5962	2751494.816	-2.3
672435.3271	2749741.051	-2.3
678034.4822	2747942.405	-2.4
678555.4111	2742484.641	-2.4
683540.7885	2751905.224	-2.4
690527.246	2755364.196	-2.5
680267.3363	2741613.823	-2.5
685714.8176	2752120.631	-2.5
674042.7323	2749455.513	-2.5
679679.9888	2748020.419	-2.5
680546.9729	2748330.391	-2.6
688552.5189	2754805.246	-2.6
675036.3834	2746694.141	-2.6
684786.6254	2749064.635	-2.6
669093.5844	2750962.329	-2.6
674538.9993	2749279.831	-2.6
678426.7646	2742423.989	-2.7
685032.711	2750348.879	-2.7
689041.7454	2754941.278	-2.7
685546.1427	2752983.814	-2.7
686035.2285	2753607.077	-2.7
672787.9179	2749387.374	-2.7
669304.4311	2756110.021	-2.7
680527.1595	2750970.163	-2.7
680040.439	2747978.097	-2.7
681033.1045	2751318.333	-2.8
677547.84	2743763.061	-2.8
677540.7787	2746153.438	-2.8
685782.5589	2751600.875	-2.8
685606.8606	2749307.195	-2.8
687550.7812	2754244.549	-2.8
681044.1322	2748312.505	-2.9
690543.8036	2754992.209	-2.9
679019.8031	2743321.586	-3
685000.8144	2750018.296	-3
678534.2029	2745249.06	-3
678499.4416	2742861.247	-3.1
681534.9759	2747070.914	-3.2
673545.0833	2749500.315	-3.3
690028.1951	2754964.272	-3.3
678571.2237	2746730.289	-3.3
679157.2527	2747738.854	-3.4
686560.6511	2753684.821	-3.4
679527.0802	2746606.19	-3.4
670778.0704	2753068.619	-3.5
679079.1466	2746667.728	-3.5
682052.1902	2747328.36	-3.6
679628.2656	2742301.73	-3.6
680046.505	2742559.416	-3.6
680547.4475	2741719.701	-3.6
670061.4639	2754747.411	-3.7
684543.1088	2750018.022	-3.7
669633.1081	2755678.952	-3.7
672695.8335	2747871.755	-3.8
680279.8794	2742172.902	-3.8
670838.1411	2752588.164	-3.8
680556.2394	2746961.754	-3.9
674515.5939	2746791.284	-3.9
680060.1158	2746918.421	-3.9
673782.9617	2747926.834	-3.9
682047.5844	2746829.575	-3.9
678386.1862	2747200.932	-3.9
684044.9995	2751615.159	-3.9
670543.0844	2754216.598	-4
679767.9605	2746300.981	-4
672276.2981	2748292.731	-4.1
689044.091	2754068.077	-4.1
689598.5069	2754306.378	-4.1
681548.3388	2748567.715	-4.1
685203.2504	2749270.502	-4.1
680542.3784	2747458.254	-4.1
676526.2823	2750222.557	-4.1
675526.8861	2749837.496	-4.2
684034.4979	2750211.484	-4.2
678056.0966	2750617.577	-4.3
669796.0626	2755174.199	-4.3
684548.4715	2750509.346	-4.4
674547.1696	2749780.58	-4.4
678276.8298	2746378.742	-4.4
677047.8188	2743658.001	-4.6
685529.4663	2750411.948	-4.6
679573.8275	2746099.658	-4.6
689563.4637	2753935.964	-4.6
672671.5024	2747806.122	-4.7
672553.3684	2747862.347	-4.7
670892.569	2751048.816	-4.7
685791.5733	2750442.921	-4.8
680284.1944	2742621.76	-4.8
671961.6466	2749332.591	-4.9
690064.7081	2754252.597	-4.9
680547.771	2742259.804	-4.9
678792.0137	2744046.798	-5
681037.6528	2746440.836	-5
670910.774	2753552.73	-5.1
680557.2179	2746460.242	-5.2
670222.7795	2754911.225	-5.2
678852.6744	2746901.698	-5.3
689051.6421	2753444.892	-5.3
673809.0783	2749665.783	-5.3
678520.3746	2743346.898	-5.4
679051.8371	2745774.87	-5.4
678059.7813	2746514.225	-5.4
685787.8799	2749321.581	-5.4
675038.2197	2749934.965	-5.5
670789.8836	2754042.337	-5.5
684765.2549	2749672.801	-5.6
671581.4759	2749678.553	-5.7
684050.6696	2749152.65	-5.8
671053.9892	2750551.756	-5.8
680037.9823	2745887.315	-5.8
679036.9541	2743921.072	-5.9
679050.7388	2747054.743	-5.9
677538.4351	2743980.827	-6
685537.7321	2751552.855	-6
690035.2411	2753516.626	-6
685541.3945	2749563.523	-6
689556.4779	2753317.942	-6.1
678031.7804	2747521.708	-6.1
677037.4446	2747243.802	-6.1
678655.2798	2746854.402	-6.1
677794.8452	2745254.004	-6.2
680790.2582	2742189.231	-6.2
690533.4589	2753776.333	-6.3
678941.2436	2746207.109	-6.4
685066.319	2749474.281	-6.6
678045.8178	2743651.731	-6.6
679580.6215	2747589.827	-6.6
685040.9469	2750700.955	-6.7
685533.9071	2750931.48	-6.7
679558.1581	2744782.838	-6.7
678536.6372	2743780.358	-6.7
686045.5097	2750062.605	-6.8
685541.8231	2749833.682	-6.9
691090.2488	2753915.922	-6.9
673222.2237	2747769.32	-6.9
675285.4413	2746817.288	-7
686055.3225	2750634.544	-7
680029.5068	2744587.619	-7.1
680062.2579	2745078.463	-7.3
679028.9931	2743534.507	-7.3
679017.5508	2742984.655	-7.4
677492.9395	2745640.846	-7.5
680276.394	2741835.687	-7.6
673297.2649	2747157.704	-7.6
684520.4299	2748805.137	-7.8
686063.5328	2749066.061	-8
681016.8652	2745448.12	-8.5
678040.0234	2745996.162	-8.6
676544.2569	2747369.405	-8.6
680043.1613	2745451.413	-8.7
676544.7597	2746493.741	-8.7
677036.8703	2746494.703	-8.8
680549.2126	2742499.601	-9.1
680543.4586	2742961.793	-9.1
680556.0836	2741409.33	-9.1
679537.1935	2742814.179	-9.2
690295.8682	2750211.114	-9.4
678543.452	2747226.35	-9.4
690294.2313	2749980.32	-10.1
678804.6227	2747451.634	-10.3
690046.7853	2750636.159	-10.4
681031.7515	2744584.196	-10.5
679539.0313	2745726.284	-10.6
679045.9438	2746072.465	-10.8
681547.3474	2744699.527	-10.9
690049.2715	2750345.208	-10.9
690047.507	2749605.6	-11.2
683044.5314	2744796.069	-11.2
681016.412	2743833.981	-11.2
690535.2072	2749866.468	-11.3
678533.6006	2745983.21	-11.4
678047.2988	2746200.635	-11.5
683042.0862	2744424.849	-12
684547.8169	2744266.632	-12.5
681038.3119	2742336.659	-12.9
681044.0878	2741835.289	-12.9
684545.052	2743767.744	-13.2
674529.7083	2747081.99	-13.4
684550.1825	2743269.216	-13.9
682047.4381	2743714.804	-14.1
684994.3567	2743081.652	-14.4
673754.5223	2747581.57	-14.5
684543.9079	2742767.711	-14.6
674296.1731	2747580.269	-15.5
675550.0273	2747019.421	-16.3
674176.2673	2747293.835	-16.4
675051.9413	2747350.92	-17.9
678565.9363	2746175.817	-18
676369.0704	2750592.065	-0.1
668590.5652	2751016.636	-0.1
680829.2167	2751460.492	-0.1
671632.5309	2748414.828	-0.1
669467.0356	2757178.305	-0.1
679923.1909	2741483.723	-0.1
671130.1589	2753564.09	-0.1
677064.31	2742945.762	-0.1
684313.0168	2751999.9	-0.1
678700.9829	2745836.928	-0.1
674839.1329	2746433.383	-0.1
690516.2659	2755642.996	-0.1
685794.8846	2749160.543	-1
687537.1068	2754595.726	-1.4
688040.7643	2751573.305	-6.5
691056.2256	2752559.867	-8.3
685053.2122	2746072.61	-10.7
689544.7732	2748866.401	-11.3
682043.8153	2744086.474	-13
688046.9087	2745585.537	-14
685047.2754	2742584.994	-15.1
691044.7439	2746142.777	-16.4
688040.8368	2742089.583	-18.1
691046.0998	2742643.948	-20.3
677565.1366	2748289.391	-0.1
672170.9258	2746021.889	-0.1
674030.4123	2748600.164	-0.2
674671.1345	2744100.123	-0.2
685288.8895	2749516.659	-0.2
680042.0356	2748848.886	-1
671412.1789	2750662.684	-1.7
686038.9583	2753857.644	-2.5
682543.8286	2749974.371	-3.9
688039.8359	2752573.473	-5.4
690562.9065	2753301.341	-6.6
690545.9369	2750396.034	-6.8
687540.4588	2750299.905	-7.4
684549.4427	2747263.425	-8.8
680563.9042	2744452.231	-8.9
687043.2983	2747643.98	-10.8
683556.9861	2745032.192	-11
689543.2614	2748366.415	-12
686042.5713	2745510.327	-12.4
684799.7247	2742956.995	-13.7
689041.6994	2746163.498	-14.2
687541.7535	2743806.833	-15.6
682047.2973	2742721.659	-16.4
690045.3974	2744129.091	-17.7
688039.9645	2741592.673	-18.6
690548.1666	2741888.686	-20.7
673785.746	2748916.031	-0.1
685280.0021	2753822.256	-0.1
675023.9142	2743425.768	-0.1
682525.4529	2752992.72	-0.2
676570.0435	2745808.487	-0.2
670615.7882	2750438.584	-0.3
689724.079	2753528.093	-0.3
678277.2604	2750788.413	-0.4
679544.2435	2748704.385	-0.5
666917.7959	2750263.964	-2
670012.8607	2755350.121	-2.1
682541.552	2750971.298	-3
687053.7164	2753729.12	-3.6
680292.849	2746596.336	-4.6
683537.4507	2749502.148	-4.7
686044.4687	2751682.167	-5
681553.473	2749065.675	-5.1
688035.7085	2752075.371	-6.1
687034.7224	2750168.249	-7.2
684039.1315	2747636.876	-7.8
682053.4049	2745364.389	-7.8
686049.6755	2747509.807	-9.9
688042.9603	2748581.276	-10.3
684044.9229	2745639.419	-10.6
681041.9614	2743319.449	-11.1
684540.7998	2743914.909	-12.2
690046.0328	2748606.167	-12.3
688045.2411	2746586.375	-12.9
690045.0499	2746610.722	-14.9
687548.9622	2744305.779	-15.1
686045.9539	2743012.371	-15.2
683038.0206	2742678.011	-15.4
684537.143	2741769.809	-16
689540.7133	2744868.671	-16.4
688035.2882	2742591.249	-17.5
690038.5118	2743130.487	-18.9
691031.631	2741646.399	-21.3
670105.3693	2751007.057	-0.1
678642.2459	2742198.689	-0.1
667398.4688	2750397.335	-0.1
675279.6414	2749595.462	-0.1
671480.4492	2746971.567	-0.1
688861.9221	2755085.902	-0.2
672617.9082	2746096.357	-0.2
674386.1431	2744784.206	-0.2
678929.3085	2747833.253	-0.3
678542.0055	2749438.575	-0.3
679253.5705	2751416.034	-0.3
671773.7072	2750097.463	-1.2
669840.6417	2755472.72	-1.6
676051.5326	2744507.637	-2
686050.9008	2752635.411	-2.1
676065.6493	2747625.337	-2.3
682557.5616	2751469.318	-2.5
681292.6488	2748374.995	-2.6
677547.7528	2744857.55	-2.9
680299.1307	2747029.829	-3.3
680296.8905	2742759.99	-3.5
683036.154	2750161.337	-3.7
671017.2514	2752077.914	-3.7
681540.3095	2750065.057	-4.2
680072.4468	2750297.137	-4.4
688025.871	2753093.185	-4.6
677598.841	2746777.473	-4.8
685667.3603	2751268.211	-4.9
687042.5839	2751667.205	-5.9
683036.5097	2748660.844	-6.2
691049.9093	2754277.682	-6.4
680293.1466	2745483.146	-6.7
689037.0352	2752121.61	-6.7
683551.478	2747015.748	-7.3
688548.2463	2750811.517	-7.5
690546.1312	2752365.77	-8
684540.6885	2748260.206	-8.1
686542.7603	2748868.691	-8.6
672931.4215	2747549.118	-9.2
688057.2643	2749079.382	-9.6
685543.0573	2747190.063	-9.8
683557.3154	2745525.648	-10.3
689548.0978	2749363.874	-10.8
681049.633	2744208.67	-10.8
687541.1377	2747802.486	-11
685048.9569	2745574.287	-11.3
689038.6275	2748131.489	-11.9
683035.1056	2744088.136	-11.9
686544.109	2745871.743	-12.3
691030.689	2749068.395	-12.5
688540.9128	2746812.524	-13.1
686044.3472	2744510.445	-13.6
690049.8628	2747110.31	-14.2
687544.7358	2744804.049	-14.5
684037.2322	2742646.018	-14.6
689537.1794	2745866.753	-15.1
681547.5141	2742035.4	-15.7
687544.3705	2743314.348	-16.2
685044.1478	2741584.08	-16.4
689051.4329	2744132.01	-16.7
683048.0819	2741649.056	-17.2
690539.4709	2744881.395	-17.4
687041.0739	2741648.837	-17.6
688542.7691	2742316.379	-18.2
690045.3898	2741631.281	-20.5
676290.8085	2749300.849	-0.1
685585.7676	2752608.042	-0.1
676066.5009	2746164.287	-0.2
676050.4726	2742755.109	-0.2
669540.3445	2756197.262	-0.3
681149.775	2752455.727	-0.3
672811.5412	2746791.691	-0.3
684923.6974	2750424.163	-0.5
684409.4641	2749082.46	-0.5
677564.9587	2749448.085	-0.9
679773.8132	2745754.508	-0.9
675540.2941	2745226.177	-0.9
677079.0145	2745408.523	-1.1
679287.6731	2746935.049	-1.3
675547.8846	2744228.696	-1.4
682550.1552	2752008.944	-1.6
676554.0617	2747715.206	-1.6
680551.0205	2748683.221	-1.6
673047.6084	2749632.309	-1.7
670645.1608	2752026.033	-1.9
678538.1864	2744781.34	-2
671163.6699	2751091.313	-2.3
678244.5595	2746712.589	-2.5
676535.566	2744290.344	-2.7
671041.1683	2749209.832	-2.8
677865.8037	2743770.431	-2.8
685281.0054	2751482.813	-2.8
686521.2199	2753931.757	-2.9
689896.1231	2754593.768	-2.9
674530.1773	2747909.074	-3
681541.4568	2748067.16	-3.1
681540.6568	2750559.853	-3.5
672875.6088	2748149.771	-3.7
680046.2961	2750858.919	-3.7
683546.8096	2750497.993	-3.7
688046.9192	2753654.238	-4.1
686562.0957	2752845.091	-4.2
685975.0049	2750352.388	-4.2
680552.3571	2749706.194	-4.6
687539.8203	2752793.587	-4.7
681537.2605	2749563.344	-4.8
691047.0485	2754650.358	-4.8
686537.4843	2751848.929	-5.3
682547.9083	2747977.477	-5.3
681554.2375	2746070.386	-5.5
688543.5402	2752808.795	-5.5
682554.0041	2748975.443	-5.5
670536.9876	2754482.5	-5.8
683043.8958	2747166.089	-6
687540.188	2751794.166	-6
679533.5928	2744286.507	-6.4
683544.5813	2748508.463	-6.6
687037.0469	2750671.222	-6.8
688549.6155	2751808.46	-6.8
689541.9637	2752360.808	-7
682536.1523	2745981.388	-7.1
691037.819	2753556.686	-7.1
673845.0999	2747009.548	-7.3
686542.3331	2749369.64	-7.8
687539.6265	2749800.753	-8
689540.1774	2751364.385	-8.1
685042.1429	2748072.989	-8.5
677045.0295	2746831.619	-8.6
686021.9619	2748567.839	-8.7
688545.164	2749811.414	-9
684046.5925	2746639.261	-9.1
690540.4127	2751364.975	-9.2
685033.9153	2747075.701	-9.4
687546.0913	2748802.24	-9.5
681539.6371	2745073.647	-9.8
689540.719	2750364.381	-9.9
681042.6643	2741419.227	-10.3
688544.0595	2748814.078	-10.4
684540.0239	2745762.718	-10.6
682535.0407	2744988.9	-10.7
685548.8686	2746190.612	-11
688041.7992	2747584.83	-11.7
690543.0997	2749369.435	-11.8
683542.1676	2744540.294	-11.8
686551.3366	2746371.375	-11.8
675541.4988	2747469.491	-11.9
684543.6714	2744766.946	-11.9
685544.5479	2745188.134	-12.4
690548.0147	2748368.314	-12.9
681535.633	2743965.881	-12.9
686542.9821	2745371.917	-13
682535.2722	2743989.991	-13.1
684037.1187	2743647.571	-13.2
689030.7202	2747131.898	-13.2
685546.2622	2744190.005	-13.6
687551.1963	2745301.933	-13.9
686538.8989	2744375.5	-14.1
683048.1772	2743177.79	-14.3
688544.3372	2745313.165	-14.9
691047.9616	2747140.863	-15
690045.0664	2746111.433	-15.4
684048.6545	2742151.344	-15.5
681544.7218	2742597.065	-15.5
688549.2925	2744317.358	-15.9
687045.4709	2743146.387	-16
685543.0658	2742191.4	-16
683047.5484	2742150.255	-16.3
688044.2498	2743091.284	-16.9
686538.839	2741874.735	-17
689537.6094	2743870.177	-17.4
682043.4615	2741719.71	-18
687545.1115	2741816.608	-18
689041.1306	2742635.966	-18.4
690549.4705	2743879.995	-18.5
