618680.9756	2717434.276	-12.4
619712.3183	2717726.701	-4.7
621890.2179	2716860.089	-1.1
621469.7593	2717162.431	-1
621934.7273	2706493.113	-20
623748.5062	2708822.318	-12.3
623562.4999	2709498.128	-8.9
622748.2725	2709671.005	-4.9
623478.0759	2709960.189	-10.3
622987.4898	2710576.299	-6.7
621963.8642	2708874.833	-0.3
621602.0829	2706607.219	-6.6
621602.8694	2707689.661	-3.2
621615.3312	2713984.43	-9.4
623021.3011	2713788.273	-15
622970.8472	2712470.948	-12.7
623057.4031	2711647.97	-11.4
622196.9844	2712001.454	-0.5
617352.5675	2719461.107	-0.3
617428.3119	2718553.039	-4.5
616447.6848	2718519.409	0.3
614473.7623	2718263.193	-4.8
618007.9496	2719605.875	-7.6
617630.0782	2717286.112	-0.2
618777.752	2716095.198	-4.8
616767.9201	2717177.228	-9.2
616183.1681	2717081.871	-0.6
620071.2496	2716060.508	-15.5
620772.3225	2715756.458	-8.3
620775.259	2715182.037	-7.6
620720.7487	2714665.051	-2.3
626764.7749	2708348.794	-0.9
625778.2167	2708668.482	-1.2
626783.3886	2707864.736	-0.6
625971.6777	2707628.526	-0.4
624887.4537	2708517.087	-1.9
624788.4944	2706834.602	-0.8
623653.6262	2706430.837	-2.3
624301.7588	2706999.169	-9.4
624746.288	2707804.764	-2.8
624131.798	2708385.248	-9.4
624192.836	2707811.041	-12.8
623631.8859	2707512.079	-4.8
622819.1153	2708667.668	-6.9
622931.1197	2707494.729	-16
621820.0092	2708105.577	-2
622589.4664	2706544.597	-5.8
647721.1065	2713309.245	-17.6
641053.2992	2713042.125	-0.9
638261.7199	2712729.501	-5.2
638744.7749	2712833.945	-4.6
636232.5083	2712866.221	-2
631635.5984	2712782.557	-0.9
629366.6882	2712682.07	-0.4
633777.4309	2712984.906	-0.2
637698.6854	2713208.033	-3.5
638807.6242	2713571.871	-10.8
635084.8327	2713553.729	-4.5
632787.0377	2715220.723	-1.3
635872.4727	2715276.808	-0.8
634660.9334	2714910.216	-3.1
630994.2242	2714268.338	-1.2
641817.1511	2715037.914	-14.9
636200.0938	2714315.013	-2.7
642018.3861	2714246.8	-1.4
637347.2758	2714197.099	-2.2
633585.024	2713964.393	-2.4
632222.9851	2713902.646	-2
640729.492	2714294.788	-7.5
640930.3627	2713938.853	-3
639067.3127	2714353.403	-5.7
658409.23	2714104.431	-4.2
662813.5637	2714397.06	-6
661786.525	2714385.141	-3.9
660301.3031	2714332.446	-1.9
657537.5321	2714838	-3.3
663582.1324	2714682.656	-9.4
663506.5162	2715235.002	-4.7
648230.6376	2720781.52	-0.2
648991.017	2717633.148	-0.9
649185.2001	2719916.494	-1.4
648394.6566	2717304.495	-2.2
648245.719	2714859.543	-3
647744.7257	2714346.8	-2.8
648115.0815	2715480.479	-4.5
647234.0591	2716968.904	-6.4
645418.9246	2718459.647	-0.4
647858.1031	2718911.226	-4.4
654967.9987	2717748.011	-3.5
656161.1752	2717242.661	-0.4
655554.4143	2716855.614	-6.4
657454.7481	2715867.196	-0.8
657988.3535	2715799.996	-3.3
642478.3467	2715413.755	-11.9
643763.189	2715849.901	-16
643789.8762	2715331.597	-9.3
643588.0769	2714683.824	-2.7
641585.6049	2716012.728	-9.7
641128.8718	2715529.201	-18
639070.3123	2718444.765	-1.9
639636.1893	2716039.881	-0.3
640222.4391	2715170.287	-17
641576.5465	2719513.966	-0.3
642333.6377	2718338.379	-2.2
643323.2374	2718207.2	-5.8
643874.4431	2718385.696	-0.6
644261.5717	2717814.269	-8.4
645806.3138	2717772.363	-0.4
646030.4203	2717245.018	-2.2
645478.5317	2717227.049	-14.6
642949.3367	2716487.206	-8.2
643443.7766	2716457.704	-4.6
644128.2532	2717236.441	-11.2
643777.0192	2716679.727	-5.6
628983.8898	2715373.208	-0.2
651526.3271	2713349.841	-15
651232.5855	2712862.55	-5
650758.7426	2719357.016	-2
651795.7987	2718876.229	-2.7
651860.2769	2719303.905	-1.1
653807.1896	2718368.575	-1.8
651668.8205	2721017.712	-1.5
650385.2857	2721559.805	-1.2
652681.1079	2721121.258	-1.3
655249.2976	2718326.585	-2
652226.3652	2721714.967	-1.1
653972.4895	2721170.017	-0.2
654995.1098	2720524.695	-0.2
653206.5774	2721679.963	-0.4
656301.9689	2718108.561	-3.2
654858.6081	2721283.51	-0.2
656103.5665	2719212.459	-1.4
656945.7463	2719175.143	-0.2
654983.2531	2719487.671	-1
642680.4496	2719030.155	-0.7
642710.7569	2720539.975	-3.6
643167.3476	2721015.257	-0.3
644416.2483	2720649.006	-3
644257.4007	2719300.497	-1
645892.2167	2720642.006	-4.5
646517.9722	2720291.782	-7.3
647230.5913	2720574.751	-3.6
647478.183	2721095.758	-2.2
647400.6601	2719678.969	-3.2
660622.9473	2713334.362	-7.6
660065.2809	2713005.553	-6.2
650007.4885	2713011.181	-10.9
649270.5559	2712876.165	-9.6
654499.7067	2713202.346	-7.2
653081.486	2713152.175	-7.3
654496.3342	2716636.556	-7.4
654201.1194	2717312.488	-4.1
646276.4824	2714620.169	-14.8
645216.0557	2714493.185	-9.2
645571.517	2715718.129	-5.4
644872.4497	2715562.415	-6
644263.4788	2715256.147	-8.6
623600.7889	2715871.671	-0.8
626054.1751	2711123.288	-1.2
659185.972	2708757.698	-29
651232.9378	2710005.359	-3.4
655288.6722	2708914.406	-14.4
640237.9894	2711893.839	-0.3
630565.5482	2710951.039	-0.2
663836.6451	2710228.471	-16
615858.0495	2721589.006	-0.2
618528.1569	2725017.535	-0.7
647531.8316	2718136.156	-0.4
614826.5643	2717759.877	-0.3
619365.09	2715652.867	-0.6
658869.4468	2714236.78	-1
656685.2686	2717836.205	-0.1
635791.9353	2719793.943	-2
643950.4188	2719988.57	-0.8
625144.7351	2713419.683	-4.2
624352.6072	2709294.559	-4.3
613140.4261	2718101.885	-0.9
650586.848	2707450.959	-3.6
628839.2154	2707769.537	-4.4
627598.7599	2710824.023	-0.3
659449.1075	2711471.789	-6
635232.9445	2709483.838	-1.5
632409.6992	2710611.352	-0.5
653266.759	2707743.514	-12.3
618006.9546	2723085.6	-0.2
661715.5757	2713485.261	-13
656029.6261	2712538.898	-10
630274.5718	2712491.174	-0.2
649364.5417	2724334.544	-0.4
645332.7914	2721165.732	-0.7
622293.3986	2712956.191	-4.4
621127.0623	2717643.344	-2.1
622145.1535	2706980.224	-2.9
637497.2509	2714974.43	-0.1
640149.1176	2714572.67	-7.5
647134.5377	2715413.182	-2.7
643493.9212	2717218.73	-7.3
630990.7856	2715720.288	-0.1
650551.5147	2720472.969	-0.1
642762.6138	2719941.806	-0.1
650316.3327	2713325.696	-0.9
653239.0095	2713534.269	-1.3
653555.5587	2717213.873	-5.6
625555.7674	2714189.06	-0.2
617290.1239	2723258.395	-2.8
617231.975	2721836.263	-4.7
645409.8065	2723428.899	-8.5
641484.379	2718678.444	-2.8
636756.8209	2719872.493	-2.6
611673.5881	2717980.297	-2.2
645957.1806	2724920.307	-0.3
626748.6253	2706758.579	-0.5
634850.8747	2712610.794	-0.1
655266.989	2712888.429	-3.2
647266.657	2711932.455	-0.5
638719.3405	2708213.76	-0.1
619477.5586	2719856.226	-0.1
663595.9376	2715501.472	-0.6
650493.2719	2708111.279	-3.5
640016.1839	2719210.544	-0.1
615902.7796	2719018.021	-0.1
627960.214	2714573.767	-0.1
653621.21	2720578.617	-0.1
619581.2431	2718075.264	-1.4
614786.2886	2718948.824	-0.2
618428.8477	2716476.532	-2.9
620300.3219	2716612.484	-9
621149.338	2707502.899	-1.4
621323.8756	2706807.544	-10.6
621338.7326	2707145.081	-5.5
620941.3108	2714544.313	-3.5
620944.5336	2715199.243	-8.9
621279.8699	2714801.32	-7.8
620615.7151	2715008.425	-10.3
621286.7802	2716421.336	-15.8
620942.1993	2715551.016	-10.8
621427.2741	2715832.729	-11.7
621280.5777	2715417.144	-21
618075.4271	2716177.445	-0.5
617780.7158	2716912.57	-7
618493.6128	2716556.55	-6.3
620597.9153	2716658.768	-13
621301.1317	2716855.294	-8.8
618132.4385	2717082.522	-3.8
618506.1467	2717173.089	-10.9
617776.3919	2717383.288	-3.3
619897.0885	2717547.709	-6.2
619196.4126	2717554.507	-6.3
617773.5878	2717841.932	-10.3
619895.3928	2718075.632	-7.5
619195.5752	2718027.717	-7.1
619198.6841	2717080.568	-14
620595.9724	2717048.157	-12.4
619534.8157	2718198.309	-3.2
618497.8745	2718147.901	-2.2
617842.5429	2718301.514	-13.6
619196.4068	2718513.017	-4.7
619546.9855	2718561.483	-1.6
619894.4125	2718603.893	-5.8
618493.424	2718672.22	-7.6
620951.8894	2717960.758	-4.1
620600.0074	2717651.113	-6.4
618127.9459	2719251.72	-6.1
617816.4639	2718823.512	-0.3
619043.0301	2715791.964	-0.5
619897	2716398.682	-17.9
619196.342	2716147.167	-7.6
619101.3819	2715408	-2
619895.5485	2715863.92	-15.3
616412.5285	2717247.859	-7.8
615913.1154	2717405.711	0.7
618624.6466	2714973.983	-3.2
618807.3567	2715594.172	-3.3
618506.7249	2715513.446	-1.5
616363.7947	2718747.378	-0.1
617099.011	2718849.448	-1
616387.0142	2719029.64	0.6
617441.9344	2718540.424	-5.2
617458.3398	2717983.868	-1.1
617185.0125	2718125.099	0.2
617442.4191	2717764.892	-4.6
617099.9467	2716746.613	-7.8
617072.283	2717249.473	-1
617460.3004	2717285.769	0.7
616390.0206	2717604.377	-2.4
615712.8589	2717820.083	-2.6
615656.2335	2718351.433	-1.3
616667.4877	2718496.982	1.1
616750.598	2717140.191	-11.8
620601.1478	2715172.113	-13.7
620599.1564	2715527.433	-14.7
611842.6205	2717773.625	-2.2
611842.4737	2718323.205	-1.5
611634.3549	2717472.113	-0.7
611535.6086	2717292.27	-2.1
614279.7078	2718514.532	-0.7
614767.6624	2718015.136	-3.8
615014.198	2718361.761	-1.9
612193.6432	2717991.723	-1.1
612883.9696	2718072.611	-1.1
621293.2076	2714165.7	-0.5
621304.2399	2717357.347	-2
618844.4489	2719210.563	-2.9
618739.2145	2715961.358	-0.4
617248.8264	2717760.772	-10
612869.7328	2718382.269	-0.8
621514.954	2706462.881	-7.1
621564.3061	2708193.729	-1.4
620796.9504	2716158.43	-4.9
617786.3573	2717212.125	-0.5
619896.5609	2717070.908	-8.6
619199.2248	2714851.296	-0.5
617092.8135	2718402.14	-0.2
620236.8772	2715136.293	-5.9
615292.1066	2717834.008	-0.8
613599.0662	2718295.112	-2.6
614785.5689	2718948.874	-0.2
620381.5366	2706530.973	-0.9
620528.2342	2707128.498	-0.8
621608.7919	2708720.631	0.1
621310.2255	2709042.624	-0.8
621598.4727	2709378.222	-0.6
618429.6319	2716476.062	-2.9
620300.2012	2716613.558	-9
616447.7537	2718519.654	0.3
615180.5005	2718701.69	-0.7
620830.3304	2706812.169	-1.3
621291.8407	2714978.744	-15.8
620604.9542	2714607.505	-0.8
617800.3528	2716438.059	-4.9
619192.9261	2716672.292	-15.5
618498.0859	2717620.323	-9.3
620241.9412	2719129.459	-6.1
619195.8921	2718863.996	-2.2
619898.2747	2715256.682	-0.6
618259.1358	2714790.367	-1
617437.0354	2719249.091	-0.9
620605.327	2718187.263	-6.2
616292.7365	2718109.107	-0.5
619156.3954	2714289.827	-1.3
616825.5464	2717864.158	-0.3
620594.6842	2716127.9	-9.3
620537.5032	2707704.193	-0.1
619580.9914	2718075.074	-1.4
618147.0605	2718504.097	-0.2
612231.6023	2717600.528	-0.3
621521.473	2707515.37	-3.7
619903.4005	2719128.673	-2.5
616407.3508	2716974.245	-0.7
614294.9549	2718040.739	-0.7
621067.626	2708319.198	-0.5
619770.6972	2706530.365	-0.1
621591.7526	2709824.292	-0.2
615864.9334	2719016.056	-0.1
611540.2512	2717127.102	-1.6
611535.7952	2717322.195	-2.1
660773.8799	2714366.659	2.1
653738.0731	2716130.266	-7.8
660871.0753	2711587.161	-11.4
654570.069	2713057.769	-9.7
653875.273	2715026.96	-13.7
653781.5758	2714721.47	-6.2
653874.0762	2714622.663	-4.1
653780.2713	2715121.163	-15.5
659114.174	2713094.067	-0.5
659569.8745	2713005.369	-1.5
659260.479	2712780.461	-1.6
662871.7755	2714148.76	-13.9
660672.1803	2714382.666	-0.1
660089.4706	2714051.869	-2.6
658646.0705	2714977.464	-2.9
658659.1767	2714865.863	-2.5
663174.4793	2714168.466	-14
659350.7741	2712827.463	-2.4
659013.0733	2712858.759	0.7
663076.4733	2714278.466	-13.9
660085.7719	2713713.363	1.4
656197.9785	2715382.665	-10.4
657211.1735	2715029.369	-6.8
657374.3752	2716135.762	-3
658336.9698	2715143.861	-3
657267.2775	2715955.769	-1.5
658263.9778	2713619.966	-2.1
658339.7734	2714146.061	-3.7
656981.8695	2715479.969	-7.5
656380.1739	2715630.57	-9.4
658717.2785	2714034.569	-0.9
656977.5693	2714543.062	-9.7
657255.678	2715794.869	-3.8
658057.0758	2714010.261	-5.2
657557.07	2714495.76	-7
658500.2719	2713886.363	-2.1
656439.0689	2715005.262	-10.6
656587.1737	2716133.767	-6.2
657107.473	2715397.566	-6.8
657822.3714	2714559.263	-5.3
657954.9701	2715375.26	-3.4
658628.5715	2713791.77	-1.1
658637.676	2715180.368	-2.4
658028.9715	2714833.163	-4
656604.678	2715985.46	-6.6
656345.2728	2715485.766	-9.8
658461.8778	2714721.36	-3.1
657719.5736	2715763.064	-3.2
657581.3732	2714204.767	-6.1
656654.7774	2714717.563	-10.7
656274.6744	2714898.068	-12
657739.5726	2715551.97	-3.3
657665.3692	2714947.566	-4.7
657784.7747	2716031.067	-3.2
657171.7729	2714563.969	-9.5
657452.1735	2714272.267	-9.1
657339.976	2715616.964	-4
657763.5747	2714139.761	-6.5
657639.1723	2714745.569	-5.6
658798.2722	2715276.666	-1.6
657934.1769	2714245.667	-4.7
656388.4738	2715143.27	-10.8
658181.4709	2714052.566	-3.9
658359.071	2713884.963	-3.6
657991.7752	2715151.967	-3.8
656369.8693	2715923.76	-8.6
657713.3789	2714471.061	-6.1
658348.8704	2714558.467	-3.5
658140.7728	2714379.464	-2.9
658759.176	2713847.968	-0.2
658260.377	2713795.765	-4.7
657959.0785	2714102.564	-5.1
658323.3752	2714410.761	-3.5
657524.9723	2714995.47	-4.4
658355.4779	2713642.665	-0.7
658126.6793	2715085.169	-3.6
657791.3726	2715892.865	-2.9
656342.9704	2715337.26	-9.6
658829.1742	2714326.664	-0.8
656881.569	2715248.864	-7.7
657383.5692	2714521.364	-8.6
657070.072	2714689.966	-6.8
658009.574	2714432.664	-4.1
658177.2772	2713904.37	-4.6
657502.7698	2714808.566	-6.1
657218.7716	2715295.668	-6.3
658435.1741	2714879.069	-3
656289.4692	2715767.067	-9.1
658568.2738	2714025.067	-1.8
657460.9731	2715527.864	-3.6
657608.9722	2716124.865	-3.3
658464.871	2715066.36	-2.8
657637.5723	2715438.56	-3.6
657807.3712	2714890.463	-4.6
658861.977	2714044.766	-0.1
658254.4795	2715009.36	-3.1
658630.7766	2713650.061	-0.4
657336.4692	2715201.764	-5.6
657350.8749	2714974.661	-5.8
658326.8771	2714715.664	-3.2
656276.076	2715047.462	-11.4
657371.375	2714373.566	-9.4
658073.2704	2715283.164	-3.4
658421.678	2714039.162	-3
656844.3703	2714649.559	-10.5
657908.8775	2714684.366	-3.9
657861.3776	2715223.76	-3.9
657075.375	2715091.368	-7.6
657568.2743	2714347.959	-7.8
657080.9754	2714445.76	-10.5
658649.8722	2713919.462	-1.1
658082.8755	2714160.962	-3.6
658183.5751	2714578.16	-3.8
657774.6722	2715380.67	-3.5
658168.3745	2714775.768	-3.6
657464.0709	2715125.06	-5
657772.6748	2714683.66	-4
658198.476	2715202.661	-3.3
658878.5799	2714176.162	-0.7
656202.1758	2715533.165	-10
658599.7793	2715002.17	-2.4
656480.5735	2714776.567	-9.8
658920.477	2715341.06	-0.8
657875.4693	2715490.167	-3.3
657213.5739	2716167.77	-0.4
658616.9762	2714775.663	-2.5
658865.8795	2713748.466	-0.1
657755.8723	2714289.662	-4.8
658710.0709	2715067.069	-1.2
656473.3749	2716062.562	-6.2
658261.2708	2714291.062	-2.8
656215.8765	2715234.163	-10.3
653867.7714	2715244.366	-16.3
654152.9692	2715646.861	-13.7
653871.7689	2714829.567	-9.4
654077.9732	2715872.964	-13
654000.7758	2715752.664	-14.5
662775.3789	2713961.267	-13.7
659065.9742	2711072.459	-17.5
659968.3788	2711042.06	-19.8
661172.5724	2714499.565	-3.3
657577.8792	2713002.961	-11.9
659377.7789	2712019.363	-21
659970.6776	2711785.163	-13.2
662988.0809	2714436.159	-11.6
658763.8775	2711312.662	-24.5
663477.779	2715136.965	-6.7
659160.8794	2710490.868	-22.5
658660.2705	2709774.861	-21.5
662978.5727	2713790.559	-13.9
662102.9757	2714009.86	-10.1
658755.2768	2712593.163	-9.6
659567.8789	2711761.064	-7.8
658965.0751	2710441.662	-22
659269.7766	2710693.066	-21.5
661274.9715	2713633.367	-10.6
659265.4792	2712558.46	-4.1
659567.2746	2709464.263	-21.5
661269.0724	2713233.967	-12.1
658381.9707	2713154.36	-5.9
659966.2765	2711542.067	-18.7
659767.7793	2711030.961	-20
658663.6711	2710525.761	-23
659569.5728	2711237.862	-11
658562.9738	2713230.662	-4.9
659168.0757	2711797.169	-15.1
661699.7787	2714321.165	-4.3
658977.9784	2711592.564	-23
662359.4718	2714371.259	-0.8
663362.6763	2714589.259	-11.6
661381.2776	2714297.662	-5.5
662159.6737	2713687.364	-13.2
661178.0775	2713900.463	-7.8
660388.1741	2713325.065	-6.8
659170.7753	2711343.864	-6.9
660167.7774	2713010.161	-12.5
663488.6776	2714837.761	-9
658761.6699	2709965.157	-21.5
658875.4717	2712848.365	-1.8
658194.477	2713111.263	-5.6
662658.479	2714615.966	-1.2
659959.6756	2710442.159	-21.5
660172.4783	2711874.665	-17.4
662380.3807	2713964.765	-12.5
658672.3763	2712260.267	-11.7
659766.9778	2710738.564	-20
657963.5716	2713255.761	-13
659958.2748	2709944.063	-21.5
658872.8698	2711829.761	-20.2
658408.6724	2713386.46	-0.9
657972.9768	2713017.167	-12.8
660160.5773	2712713.567	-13.2
663101.072	2714869.07	-1.4
661589.3783	2713775.662	-10.8
662353.3739	2713664.269	-13.3
658663.1757	2710776.267	-24
658765.9783	2710410.861	-21
661166.3808	2713053.662	-12.1
658966.7774	2711313.668	-18.5
659658.474	2710419.763	-22
661179.7716	2714199.467	-5.6
663274.0719	2714688.563	-1
662586.7808	2714349.766	-6.6
659864.5801	2711294.159	-18.9
658839.1763	2713250.261	-0.4
659671.7764	2712034.758	-12.7
657754.3745	2713165.764	-8.8
661383.9713	2713554.565	-11.8
660283.3734	2714360.464	-1.3
660273.5737	2712646.969	-9.9
659062.1786	2712220.468	-10.2
659466.8752	2711020.063	-7.5
660063.6752	2713162.76	-8.3
659969.1747	2709544.46	-21.5
661584.5796	2714073.461	-7.8
659065.878	2710719.359	-15.4
658973.2706	2711741.967	-22
658661.3778	2712002.46	-13.7
661376.4783	2713006.164	-12.3
659171.3767	2710802.965	-12.3
662772.3808	2713805.966	-13.6
663479.1817	2713942.559	-14.2
658182.2758	2713366.369	-2.5
659763.0769	2709932.761	-21.5
662879.2753	2714700.768	-0.8
661308.9726	2714766.47	-1.1
660283.2795	2712116.365	-4.3
662263.1733	2714162.662	-2
659773.3732	2712144.564	-13
661185.475	2714340.559	-4.7
658588.7787	2713372.566	-2.5
660286.8798	2711952.465	-16.8
658967.4756	2711942.462	-19
659960.5778	2710642.864	-21.5
659361.0711	2710262.167	-22
659178.2701	2712684.763	-10.6
660086.7746	2713662.06	0.1
659367.5797	2711660.364	-23
659471.1721	2710434.262	-22
658969.8734	2711442.86	-21.5
659366.7784	2711410.96	-7.8
658964.0761	2710587.761	-20.6
661462.2738	2714429.563	-3.3
659659.5779	2710915.363	-21
663288.9754	2714882.865	-6.4
659865.878	2710946.858	-20.4
661756.0736	2713743.36	-12.1
662264.181	2713769.068	-13.4
660388.0759	2713195.662	-9.9
662862.4732	2714300.76	-13.1
657870.2732	2713095.667	-12.8
659865.4725	2711143.161	-19.4
662676.9731	2714233.068	-10.7
661672.8779	2714455.864	-0.7
658986.0734	2713011.466	-4.4
657976.1781	2712886.263	-13.3
662118.978	2714152.868	-1
658669.3798	2711821.558	-18.4
660160.7792	2712863.36	-12.8
658771.3733	2712409.362	-14.5
659577.7788	2712811.866	-10.6
659668.8713	2711652.959	-10.2
658848.5707	2710822.06	-24
659659.8786	2710568.76	-22
659575.1738	2712496.168	-2.3
661183.1762	2714050.069	-6.9
659963.8764	2709743.864	-21.5
659169.4752	2711697.258	-18.8
660269.3764	2713250.659	-6.3
660282.4747	2712289.36	-10.1
660370.6737	2711822.86	-16.6
659476.0735	2712726.161	-7
658766.9755	2712160.66	-15.4
659867.1767	2710544.365	-21.5
662986.0804	2714571.268	-7.2
661390.6777	2714544.265	-3.1
659760.3795	2709781.566	-21.5
659862.072	2710098.66	-21.5
658668.1716	2711423.559	-23
661362.672	2713355.861	-12.2
659167.4703	2712115.268	-13.8
658852.9717	2713087.963	-1.3
659372.2723	2712642.759	-10.9
658667.2784	2712858.369	-5.7
659361.0743	2710511.461	-22
659865.6772	2709650.264	-21.5
660168.3721	2713587.866	-4.3
658661.4698	2712491.664	-13.8
658960.8788	2710294.064	-22
659871.3802	2712507.26	-8.4
660379.1718	2713487.761	-3.4
660497.7792	2714060.061	-5.1
662466.4741	2714294.359	-6.9
660091.2739	2713797.762	1
659208.573	2712594.844	-1.7
659463.7739	2711853.267	-12.8
663077.574	2714027.561	-14
663170.2733	2714528.959	-6.7
658568.5758	2713080.759	-5.6
661374.18	2714097.46	-7
662784.7812	2714552.269	-4.1
659865.2775	2711900.862	-8.2
659764.0745	2711529.863	-17.5
659562.8712	2711406.866	-12
659668.2749	2712583.46	-6.8
659168.3726	2712317.668	-6.8
658276.1744	2713259.66	-6.4
658409.3704	2712937.965	-9.4
658763.4793	2710954.263	-24.5
659667.0779	2711894.666	-10.9
659864.4773	2711645.064	-18.8
658981.379	2712364.464	-13.7
659060.0751	2710924.963	-22
659369.67	2710852.158	-14.7
660293.8732	2714156.364	-2.3
658870.7787	2712525.862	-7.9
660055.1703	2711930.367	-17.2
659166.7731	2711169.663	-15.6
658871.2785	2712053.064	-11.4
662264.1806	2714018.167	-10.9
660356.7727	2712837.06	-12.5
658782.376	2712966.758	-6.4
659767.6765	2710333.26	-21.5
658672.0725	2712724.368	-11.8
660171.8756	2714003.47	-4.1
660058.0743	2712292.665	-13
661257.2747	2714606.364	-1.8
661972.9772	2714043.359	-10.8
660055.6713	2712079.864	-4.7
658874.0765	2712714.959	-9.4
658078.275	2713170.361	-11.8
661596.5725	2713925.16	-9.4
659115.6705	2712781.462	-5.3
660219.5775	2714074.767	-1.5
659565.8717	2710663.859	-22
659656.0758	2709617.557	-21.5
659763.7758	2709384.061	-21.5
659465.8749	2712112.968	-19
662587.7799	2714499.259	-3.3
658863.7719	2711223.266	-24
660176.4705	2712517.264	-14
660371.4771	2712562.469	-11.1
659966.8772	2712199.364	-10.3
658768.2791	2711712.26	-20.5
658975.0783	2712665.666	-4.8
660088.0734	2713435.162	-7.8
661173.074	2713751.368	-8.9
659263.371	2711954.258	-17.2
658660.679	2711172.962	-24.5
662570.4731	2713901.163	-13.6
660274.0791	2713820.666	-1.5
662566.3736	2714053.268	-12.3
658763.5743	2710115.666	-21.5
660261.9707	2713121.859	-12.2
662056.5788	2713796.059	-11.2
663076.6793	2713879.963	-14
661472.573	2714685.063	-2.7
661768.6782	2714039.365	-8.7
663481.4769	2714539.763	-13.6
659266.8743	2711089.158	-8.5
657221.2899	2711914.421	-18.6
656781.9988	2713567.865	-12.8
655957.9967	2714101.482	-14.2
655747.4576	2715121.51	-13
655084.3745	2710057.657	-18.2
656829.1907	2713105.645	-14.3
655588.9362	2710550.119	-21
654770.9701	2710309.342	-20.6
655760.7505	2711162.378	-18.4
656533.954	2713465.029	-15.7
659652.1201	2710052.819	-21.5
655631.2733	2714215.219	-14.1
655142.4495	2715515.966	-12.1
658052.4897	2713416.627	-8
655184.7884	2713869.165	-14.8
657569.719	2713642.889	-12.3
656473.4491	2714635.088	-12.2
655615.5506	2714373.73	-13.6
655138.8159	2714007.107	-15.4
659597.6592	2709772.1	-21.5
655377.1937	2710109.678	-20.8
655953.1301	2714803.285	-13.5
656279.8509	2714541.928	-13.7
655297.3361	2710257.305	-21
655146.0698	2710286.344	-20.8
656644.7481	2713998.417	-13.7
659024.1357	2709755.163	-21.5
654997.248	2714861.366	-14.9
654795.1757	2714348.326	-14.5
657633.83	2713221.803	-14
657088.4294	2712526.907	-15.9
655236.8374	2714586.689	-13.8
656645.2507	2714405.182	-11.9
657731.475	2713931.625	-7.2
654763.7115	2715849.925	-13.8
656812.256	2712630.129	-11.7
657172.8374	2712253.809	-19.5
657206.718	2711781.899	-20.7
656345.1898	2714626.628	-12.1
659468.1945	2710190.762	-22
658702.2581	2709629.327	-21.5
657287.77	2711717.788	-13.6
657050.6121	2712729.347	-16.5
654397.0892	2710466.647	-20.1
656147.9564	2714964.2	-12.5
656423.829	2714161.988	-14.2
654455.1489	2715877.769	-13.8
657301.0919	2714158.342	-8.9
655087.9952	2714520.149	-14.8
657014.3185	2712332.464	-19.3
659504.4969	2710062.506	-21.5
655766.8103	2714089.379	-14.3
657095.3986	2714157.149	-12.1
655034.7577	2710590.058	-21
656054.7781	2714425.761	-13.5
656063.2554	2710665.082	-20.6
655945.8966	2710904.666	-20.4
655691.7728	2714501.983	-14
656813.455	2713238.746	-14.4
656956.234	2712579.298	-14.1
654230.1116	2716110.081	-8
655216.2554	2714770.608	-14.3
654902.876	2710148.404	-20.4
655457.0315	2709992.323	-20.6
657969.0144	2713583.601	-12.2
655640.9734	2714683.482	-14.2
655267.0684	2713982.901	-15.3
655551.4327	2713805.026	-13.6
654521.7089	2710519.878	-20.8
655609.5108	2710887.728	-20.6
659125.7586	2709641.421	-21.5
654986.3552	2711109.143	-20.2
654953.6944	2714710.1	-12.4
655118.2546	2710926.445	-20.6
659199.575	2709521.623	-21.5
657593.8949	2713987.749	-8.6
656808.6178	2712991.904	-11.7
657455.9706	2713798.987	-12.8
655665.1575	2710438.797	-20.8
655573.2174	2710320.223	-21
655436.4713	2713883.683	-14.2
656873.9494	2714292.662	-12
655244.0973	2711203.523	-19.6
655407.4282	2711193.844	-19.4
655356.6142	2714238.205	-14.2
656421.4144	2714310.807	-14.1
655708.7383	2711031.703	-20.2
657072.3904	2712037.218	-18.9
656544.83	2714506.819	-12
654716.5103	2715532.908	-12.2
658981.779	2709594.223	-21.5
657124.4385	2711532.647	-17.9
654709.2489	2715730.15	-13.7
654288.1943	2715937.046	-8
657023.9969	2714297.504	-11.2
657354.3304	2713721.542	-11.9
655201.7368	2714261.206	-13.3
654722.573	2710849.003	-20.6
657353.1141	2713890.941	-9.7
655038.3949	2715480.883	-15.2
657685.8721	2713357.319	-13.6
659400.434	2709470.797	-21.5
656650.1143	2714140.209	-10.7
656682.772	2713865.521	-11.1
656999.7924	2712860.027	-15.5
655411.0769	2714399.146	-13.4
655240.4563	2710885.305	-20.6
654808.4936	2714529.828	-8.5
659411.3307	2709827.764	-21.5
657624.1526	2713494.068	-11.9
655303.3686	2711328.16	-16.5
655268.2747	2711066.802	-20.1
656529.1132	2714241.849	-13.3
655039.5946	2711249.502	-19.6
656645.2504	2713586.024	-15
654297.8715	2716074.983	-7.8
657471.6922	2713465.026	-13.5
655763.1738	2714815.384	-13.6
658788.1767	2709479.281	-21.5
655081.9483	2714368.888	-13.3
655400.1693	2715180.805	-12.8
654878.6533	2710628.786	-20.7
655882.9721	2710332.32	-20.7
659111.251	2710011.684	-22
656443.1934	2713774.781	-14.5
655314.2505	2709957.221	-20.6
655355.3882	2710384.366	-21
656529.1101	2713907.879	-13.9
654538.6478	2710655.402	-21
657829.8593	2713312.559	-12.8
655471.5721	2714670.185	-14.3
656904.2141	2712307.04	-18.8
656230.2367	2710789.705	-17.6
653879.2118	2716129.448	-11.7
655799.4756	2714645.989	-13.9
655039.5962	2715374.401	-15.1
657344.6367	2713481.969	-12.8
654933.1134	2710322.647	-20.3
655512.7157	2714090.585	-14.3
656169.7321	2714298.709	-14
655974.9301	2714527.399	-13.7
655285.2377	2714126.884	-14.1
656406.8951	2714517.719	-13.2
658935.7981	2710050.403	-21.5
654583.4295	2715847.508	-13.2
656135.8493	2714827.485	-13
654954.8949	2714569.744	-14
659306.0535	2710125.425	-21.5
657200.6519	2714048.245	-12
654925.8571	2710476.319	-20.8
657432.9781	2713926.023	-11.3
656033.009	2710580.378	-19.3
655885.3955	2715099.723	-12.8
656507.3332	2713605.389	-13.8
655417.1112	2711055.899	-20.2
655390.4938	2714545.547	-13.7
656751.7569	2714517.725	-11.2
655617.9733	2715121.509	-13.2
657883.093	2713703.388	-12
655575.6321	2711167.224	-19.6
656959.8755	2711967.046	-18.7
657108.6944	2712362.698	-20.1
656270.0739	2713562.459	-14.6
654061.5679	2714271.06	-3.9
653968.8744	2713952.461	-0.6
656878.0782	2713426.467	-15.5
654267.8698	2713109.858	-9.4
654678.9762	2713410.369	-5.6
653970.1769	2712407.068	-10.5
657068.3766	2713419.162	-12.5
654267.7746	2714253.765	-5.7
654666.3725	2714513.463	-11.1
656274.8742	2714110.061	-14.6
653974.272	2715985.263	-10.2
654368.3747	2713631.962	-5
653976.8763	2714925.263	-12.1
654471.3743	2714489.069	-15.3
654585.6744	2714056.563	-6.1
653979.3719	2713037.361	-10.8
654270.4715	2712798.458	-8.5
654268.0684	2714529.463	-10.7
656975.7744	2713741.068	-14.1
656975.1782	2713949.566	-11.4
654069.2733	2715361.069	-14.1
654372.9695	2713382.767	-8.2
654282.7703	2714971.96	-15.7
654069.8711	2713295.369	-9.6
654392.1711	2713901.669	-1.8
654656.2682	2713166.368	-8.2
654077.4723	2714612.46	-8.8
656771.2784	2713958.16	-10.7
657573.0774	2711993.159	-16.4
657573.1744	2712152.068	-20.2
657766.6702	2709659.96	-21.5
657059.9711	2711260.759	-16.5
657667.0734	2710864.168	-13.2
656774.2725	2712221.46	-13.3
656866.5691	2710318.568	-19.8
661972.0812	2713647.959	-13.3
661463.7759	2709584.063	-21
662160.1726	2711839.263	-15.9
656765.8789	2711059.564	-16
661863.3784	2711317.166	-17.4
661261.0786	2711783.368	-15.2
656465.2772	2710922.958	-17.6
657259.7697	2709918.567	-11.7
657062.6716	2710313.762	-20.2
656577.9788	2711262.165	-15.6
661477.8796	2712832.466	-12.7
656959.6702	2710414.062	-19.3
657361.5741	2709618.362	-21
661467.3771	2712030.866	-14.3
657664.9701	2711497.659	-18.8
661872.4749	2713414.961	-13
656775.0688	2712412.864	-16
657266.2783	2712678.56	-16.8
656864.169	2710118.16	-21
657061.3698	2709823.863	-21.5
661658.5798	2709479.667	-21.5
657658.0736	2709897.957	-20.9
657757.3761	2711949.66	-18
661262.9736	2711983.266	-14.5
657264.8731	2711524.861	-17.1
662062.7739	2712845.466	-13.3
657164.0703	2710824.564	-17.2
656959.7738	2711015.563	-16.6
656963.4756	2711165.658	-16.4
657367.3773	2712253.058	-18.1
662166.0791	2711644.463	-16.6
657073.4775	2713163.467	-12
657458.4763	2710851.76	-19
661572.4806	2712375.065	-13.6
661663.3738	2710329.767	-20.1
657080.2758	2712961.565	-15.5
661669.1769	2711575.965	-16.2
662161.0723	2710692.468	-19.6
661667.9752	2713174.866	-12.7
657573.476	2712553.059	-16.4
656664.374	2712323.368	-17
656672.4725	2712528.262	-11.5
657675.9697	2712294.46	-20.1
656265.8742	2711413.363	-15.6
661968.3715	2711901.168	-15.3
657570.2725	2711404.568	-18.9
656766.1699	2711461.959	-16.2
657869.0699	2712249.666	-13.4
662068.8795	2713098.259	-13.2
656460.9731	2712272.56	-14.4
656759.7726	2710614.964	-17.7
657459.4741	2709930.362	-18.5
656465.7761	2710424.459	-19.5
657672.777	2711695.758	-19
661969.4717	2711400.258	-17.3
657458.7786	2710118.558	-11.1
661574.3785	2713619.06	-12.3
657156.9751	2710022.658	-20.5
656363.4775	2710192.464	-20.6
656390.9746	2713074.667	-12.1
662061.7787	2709901.962	-21
656963.8786	2711663.36	-17.8
661571.2729	2711874.461	-14.9
662157.2769	2712289.668	-14.3
656853.9711	2709523.66	-22
656462.269	2709577.166	-21.5
657464.0746	2711901.16	-20.7
661876.4788	2713114.459	-13.1
656457.2688	2711674.166	-14.6
661563.6799	2710573.659	-19.8
656567.8715	2712001.859	-15.3
657467.8708	2711699.768	-19.4
657164.7733	2713070.262	-10.2
661366.177	2711691.467	-15.7
661966.08	2711652.264	-16.5
657372.6762	2713161.266	-10.5
661358.6726	2710095.063	-20.5
657369.1754	2712018.268	-17.9
657558.1716	2710605.562	-18.3
657068.8771	2710712.568	-17.5
661875.2784	2712867.663	-13.1
662163.2755	2712484.263	-13.9
657770.2699	2709958.967	-19
657170.9716	2712387.465	-13.8
657161.0737	2711032.868	-16.8
661762.5757	2711869.568	-15.2
657264.6732	2709381.357	-23
657055.5755	2709562.761	-23
657761.077	2711015.558	-14.6
656966.3756	2711366.46	-12.3
657359.4701	2710204.758	-18.8
661564.2783	2711025.465	-18.3
661764.5743	2710028.561	-20.6
657561.6721	2709657.764	-22.5
661766.6794	2711672.364	-16.1
656565.8698	2712601.364	-12.3
661661.576	2709730.66	-21
657469.4727	2709545.057	-21.5
657369.8698	2712603.068	-16.1
657362.2736	2711262.059	-17.7
661672.8734	2711326.068	-17.3
656271.9704	2711013.367	-16.9
656462.0777	2710722.862	-18.3
656667.5773	2709881.761	-22
657867.2708	2711984.862	-9.8
656959.4706	2710016.466	-22.5
661956.179	2709805.866	-21
656769.8708	2711959.964	-16.8
657568.2752	2711245.062	-19.2
656459.6692	2711922.066	-13.9
661453.2782	2710482.664	-19.8
661471.0759	2712480.16	-13.2
657742.8704	2712991.967	-9.5
661874.5785	2712168.162	-14.4
662079.2721	2713338.869	-13.2
662164.5714	2709691.961	-21.5
656655.5731	2709633.964	-22.5
656660.2698	2711875.665	-15.8
656661.7784	2710529.965	-19.2
656459.4785	2711370.261	-15.3
661465.9765	2711530.759	-16.2
661259.7744	2709493.965	-21.5
657645.776	2709401.063	-23
656672.0761	2712822.669	-16.8
662150.2781	2711139.567	-18.3
661859.6775	2709519.862	-21.5
656553.9704	2710020.062	-20.9
656868.778	2710914.463	-16.7
662066.9791	2712398.268	-13.9
657748.8772	2712811.663	-11.6
657261.8719	2710627.363	-19.2
662152.2788	2710840.661	-19.2
662052.3779	2710548.067	-19.8
657868.6773	2711826.867	-17.1
661757.4774	2710822.267	-19.1
657565.8728	2710206.668	-14.3
661972.4785	2712748.36	-13.5
656761.1735	2710015.863	-21.5
656459.6708	2709923.361	-21
656261.6783	2712661.168	-10.8
657569.6726	2710953.258	-19
656265.6785	2713041.965	-12.3
661557.2734	2710176.059	-20.3
655959.7709	2713097.567	-8.7
655875.0767	2713834.668	-14.6
655973.8783	2715366.766	-11.1
655574.4752	2713641.866	-14.9
655877.1707	2716033.561	-8.9
655471.0683	2715665.261	-10.4
655680.4711	2715775.362	-10.3
655875.3687	2715479.864	-10.7
655677.8769	2712889.459	-8
655976.8775	2715911.867	-9.1
655874.5718	2713673.462	-15.5
655663.4724	2713136.263	-7.8
655281.5741	2713485.267	-10.3
655971.2731	2713446.268	-13.5
656086.7742	2715448.76	-10.5
655263.472	2715656.87	-12.7
655470.0754	2716118.07	-9.4
655546.6705	2715424.168	-12.2
655999.2758	2715765.864	-9.9
655554.6741	2712833.262	-9
655365.0724	2713192.759	-10.3
655418.4412	2715632.464	-9.7
655872.3764	2713323.667	-12.9
655576.8713	2716033.86	-9.8
655971.4693	2713970.56	-14.6
655478.4747	2713129.862	-6.9
655461.8731	2713416.864	-9.5
655771.2778	2713405.967	-11.1
655688.8757	2715426.66	-11.8
655384.4768	2713573.359	-12.1
655283.1715	2716076.068	-10.5
655674.1694	2713731.065	-14.2
654058.8766	2713793.86	-5.3
656133.7699	2715671.662	-9.5
656872.6746	2713827.87	-12.9
656171.2766	2713700.063	-14
653978.477	2713685.161	-7
654275.4707	2713498.059	-6.6
656969.8733	2713257.764	-15.3
654167.9714	2713195.363	-9.7
657866.775	2714010.261	-7.3
654469.376	2713488.664	-6.4
656366.5724	2713916.366	-13
653968.4682	2712741.159	-11.1
654081.4751	2714020.96	-2.6
654668.5708	2714673.967	-12.4
654469.5713	2713238.668	-9.1
656566.7733	2713134.064	-12.9
653978.8731	2715473.77	-15.4
656770.7694	2714186.261	-13.6
654372.7692	2715574.46	-13.4
657272.573	2713349.764	-14.1
656167.671	2713443.661	-12.6
656273.0766	2714260.959	-14.3
654179.3775	2714887.361	-16
654167.5762	2712690.165	-11.4
656177.8701	2714026.56	-14.2
654172.2769	2713690.564	-5.6
654173.8749	2715480.064	-14.3
653968.3704	2713464.06	-7.5
656458.6774	2713315.762	-13.1
654278.0689	2714014.362	-1.7
654570.6699	2712884.066	-10.1
654063.3721	2712597.459	-11.5
654162.8705	2712983.868	-8.2
654393.776	2713791.17	-1.3
653970.077	2715128.46	-16.6
654673.1775	2714163.969	-12.8
653977.7762	2714494.662	-5.4
654379.3722	2714856.259	-14.7
654480.5712	2713942.768	-3.1
656156.171	2715824.06	-9.1
653973.9735	2714129.262	-2.9
656374.578	2713201.966	-16.4
654375.5715	2715349.168	-14.5
656159.575	2713208.961	-13
656968.6717	2713541.06	-14.7
654370.0711	2712683.367	-12.1
654183.2738	2714130.36	-4.2
656372.5691	2713662.864	-14.9
654172.1692	2715083.262	-15.2
654573.9696	2714928.361	-12.6
654674.8743	2714817.064	-14.8
654474.2683	2715193.269	-13.7
657177.7787	2713572.162	-14.7
654681.776	2715171.763	-13.8
654380.6763	2715054.87	-15.8
654373.869	2714356.666	-9.7
654578.9757	2713584.868	-4
654669.2739	2713868.863	-3.9
654573.0682	2715303.261	-14.2
655987.0157	2714679.859	-13.3
659604.9356	2710181.084	-21.5
655937.4163	2710721.942	-14.8
656018.4919	2710472.679	-20.3
656227.8113	2714424.546	-13.3
659200.7736	2710211.323	-22
655365.0949	2715322.368	-11.8
654328.1089	2715773.705	-13
655215.0352	2710465.426	-21
657455.9786	2713302.884	-11.4
657235.75	2712057.778	-18.3
655776.4917	2710920.388	-20.4
657129.2579	2711666.965	-18.1
655745.0094	2710316.602	-20.8
654612.4714	2710378.307	-20.7
657215.1707	2713725.163	-12.5
656005.6075	2715037.738	-12.7
655738.9686	2710548.927	-20.5
659254.0186	2709675.3	-21.5
655170.2777	2715380.45	-12.8
655110.9947	2714161.982	-14
656668.252	2712982.221	-11.1
655120.6559	2714643.561	-13.5
654845.9886	2715664.804	-13.3
654591.3854	2715654.218	-12.1
655251.3493	2715082.783	-13.3
655458.2576	2710242.779	-21
654921.0122	2714402.762	-10.6
655396.5345	2714886.763	-13.4
659010.8173	2710162.926	-22
655607.0935	2715295.741	-11.9
654755.2497	2710686.858	-20.5
655671.209	2710747.358	-20.4
655147.274	2711395.927	-18.6
656235.0721	2714677.443	-11.2
655042.0174	2715662.39	-11.3
657746.3732	2713634.42	-11.5
655382.0116	2709802.347	-15.4
658122.6771	2713654.979	-5.6
654530.1923	2715999.964	-11.9
655847.8754	2714493.527	-13.7
659031.3928	2709910.043	-21.5
655146.0707	2709920.92	-20
656841.2698	2712792.264	-14.9
656662.2181	2713443.24	-12.8
656605.3295	2714567.321	-11.5
656571.4552	2713716.702	-13
655448.5708	2710557.38	-21
659564.9905	2709925.761	-21.5
657061.5156	2711878.698	-18.3
656008.817	2714232.169	-14.6
655136.3941	2710712.26	-21
657613.255	2713841.325	-10.2
653874.7743	2713866.361	-6.5
654872.1761	2713349.469	-5.9
654974.0703	2713841.865	-10.1
653777.7675	2715888.66	-15.6
655071.2769	2712804.761	-9
654765.1717	2713532.765	-4.7
654881.7683	2713750.37	-5.5
655076.9779	2715252.065	-16.3
654782.5737	2715341.07	-13.6
653870.5744	2712968.861	-11
655170.9759	2713217.065	-9.3
655077.7684	2715105.866	-15.3
654854.6765	2714795.364	-13.9
655082.5728	2713596.669	-6.2
654870.9777	2712900.861	-9.3
655175.0707	2715778.661	-12.3
654773.0772	2713266.266	-7.6
655074.5725	2713380.066	-6.5
653768.6762	2712707.86	-12.3
654785.474	2714078.163	-13.2
655082.0758	2716002.166	-11.6
654865.1737	2713150.463	-7.2
657506.7783	2713166.144	-15
655021.4529	2710228.265	-20.3
657263.5693	2713936.927	-7.9
655268.4909	2715267.078	-12.6
655483.6549	2714267.241	-13.1
656120.129	2710896.181	-12.8
654369.8691	2712942.46	-8.9
653982.0751	2715610.96	-12.9
654671.0712	2715940.369	-11.9
654168.8776	2712469.866	-8.8
654380.0759	2714104.763	-3.3
654475.4684	2715440.567	-12.9
654579.6703	2714385.167	-12.4
654180.0716	2714380.368	-7.6
656874.8783	2714069.763	-12.4
656272.8749	2713813.566	-13.8
654469.1763	2714746.767	-14.2
654075.3714	2714758.965	-11.9
654077.6774	2713542.96	-5.5
654267.6721	2713301.56	-8.5
653973.3711	2713183.768	-10.1
654449.4693	2712545.06	-12.9
656369.7741	2713462.163	-13.7
658460.973	2711045.466	-15.3
657964.5768	2712143.659	-7.3
658458.2762	2710033.459	-20.8
660667.8777	2713110.259	-10.7
661560.7801	2714564.568	-0.1
658364.2728	2711727.563	-16.3
654063.0719	2710321.062	-15.5
655170.6777	2712210.76	-12.5
654767.57	2711974.759	-10.2
654566.1715	2712386.269	-12.7
654465.87	2711719.367	-17.4
656158.5714	2711743.265	-13.7
654560.5695	2711438.159	-18.9
663264.0796	2709789.065	-22.5
656059.7706	2709774.566	-21.5
655667.6685	2711290.265	-16.8
654963.2765	2711658.968	-16.6
655962.7723	2711034.563	-18.8
663267.2764	2710838.168	-20.1
654459.8686	2710822.159	-21
655770.375	2712459.764	-10.9
663465.5801	2711365.962	-19.1
654358.1746	2710116.762	-5.3
654365.5719	2710635.266	-20.8
655053.7716	2709687.462	-8.4
655267.0744	2712610.263	-9.8
656164.6719	2711144.461	-13.7
655368.6764	2711954.869	-13.4
654155.3728	2709826.46	-9.7
655668.5764	2712711.169	-8.2
654160.1716	2709381.965	-9.3
656167.6718	2710148.761	-20.8
654263.3727	2711128.761	-21
654351.1686	2710337.563	-18.4
654660.6733	2710964.465	-20.5
655843.7775	2711641.063	-15.1
663266.7804	2711339.065	-18.8
655560.1697	2712014.06	-12.3
655368.8683	2712406.159	-10.5
654863.8689	2709727.158	-8.1
654665.6755	2711716.864	-15.3
663552.4798	2709821.66	-22.5
655169.5695	2711683.259	-16
654455.5739	2709543.358	-7
654347.9721	2709817.766	-5.7
655458.3698	2709484.163	-10.1
654262.8718	2711926.063	-16.6
654569.477	2709994.26	-7.6
655367.477	2711708.468	-15.7
654360.2694	2711428.16	-19
654266.3681	2710876.159	-21
655965.1733	2712456.36	-11.7
655472.3772	2712230.463	-10.9
655961.0697	2709392.263	-17.6
655654.3742	2709844.163	-20.9
654862.168	2709514.959	-9.8
654762.2691	2709993.662	-12.8
655236.473	2709680.964	-13.5
654261.7696	2712371.065	-12.4
655364.8724	2709659.861	-11
654283.8698	2712066.762	-16.8
655561.5741	2709619.062	-18.5
655667.1685	2709697.466	-21
655969.6707	2711237.259	-19
663257.5815	2710187.46	-21.5
654663.2759	2711866.159	-12.8
654168.7775	2711527.06	-20.5
655671.7705	2711641.764	-15.6
654767.0745	2711293.158	-19.7
655348.6763	2709408.464	-11.8
655765.773	2709958.466	-20.8
655362.2704	2711556.363	-16.5
654256.0768	2710233.468	-15.7
656063.1773	2709475.063	-21.5
654862.3737	2711811.062	-14.7
663270.7772	2712484.761	-15.9
654156.7759	2712125.262	-16.5
656168.5739	2712891.359	-14.9
654866.4737	2712092.065	-12.6
654670.7725	2712265.86	-13.1
654658.8742	2709566.964	-11
654963.0765	2711507.562	-18
654976.9717	2712014.561	-13
655960.776	2709887.859	-21
654255.0732	2709729.661	-5
655274.2726	2712313.263	-11.8
655669.3748	2709548.158	-14.9
654977.6737	2712706.559	-10.7
655969.9735	2711988.259	-12.6
663257.9762	2709591.366	-23
654776.5738	2712690.76	-11.8
654061.5684	2710769.361	-18.9
654966.468	2712468.769	-10.1
655168.7699	2712076.465	-12.8
654572.0765	2712589.661	-12.3
654857.1686	2709902.167	-9.6
654967.3724	2711355.762	-19
655664.9726	2712088.069	-11.4
655161.5727	2709422.059	-11.4
654876.9728	2712360.962	-12.5
654062.4688	2711169.564	-21
656163.4755	2709994.861	-21
654059.4728	2709475.363	-9.6
655166.2689	2712484.068	-11.4
655069.9697	2711786.169	-14.9
655669.8691	2711890.269	-13.7
655866.4703	2711491.561	-16.4
654559.5687	2711590.361	-18.2
655569.6776	2711565.359	-16
663274.6785	2713833.361	-14.3
654665.2698	2712063.768	-7.6
655864.0704	2709578.566	-18.2
663272.3772	2713284.36	-14.3
654056.5675	2709924.067	-9.9
663265.0754	2711187.868	-19.2
654265.3731	2710531.058	-19
654062.0694	2710175.266	-11.3
655055.0716	2709513.158	-9.3
654665.6685	2712466.261	-12.5
654255.7679	2710729.26	-20.6
654664.8706	2709867.067	-10.6
655791.3767	2712767.163	-8.3
655271.6781	2712808.468	-8.7
663456.0787	2711217.466	-19.2
654161.9687	2710427.758	-16.7
663270.8771	2710685.858	-20.4
656172.1784	2712441.161	-14
654568.672	2712186.459	-13
654262.3702	2711328.365	-21
656059.871	2711872.162	-13.4
663258.677	2709990.764	-21.5
655465.9732	2711479.663	-16.4
654462.271	2712271.569	-13.9
654276.269	2712539.261	-9.8
655976.2736	2712861.269	-11.6
655458.6773	2712527.358	-9.8
655068.4731	2712334.959	-12.7
654468.7706	2712078.563	-14.8
655765.4701	2712005.861	-12.3
655660.8741	2711441.761	-17.1
663265.9797	2710336.962	-21
656052.4738	2709625.761	-21.5
655777.1775	2712606.458	-10.9
655163.0766	2709786.258	-16.1
663483.2741	2713811.863	-14.3
663469.374	2713313.067	-14.5
654454.8759	2711023.868	-21
655570.5767	2712614.764	-10.3
654464.8727	2709682.266	-7.6
654060.6707	2709724.265	-8.8
656174.9713	2711544.662	-15.4
656068.8765	2712564.865	-12.2
654566.0779	2711138.459	-20.6
656172.0701	2710345.457	-20.6
654356.7744	2709456.861	-8.4
655565.7746	2709367.658	-12.1
656059.4768	2710225.164	-20.7
655962.9685	2711788.864	-14.1
663463.0803	2710564.558	-21
654755.9708	2709396.067	-11.2
655462.6684	2711832.065	-14.4
655867.0717	2712087.758	-11.6
654459.0708	2711877.068	-9
654256.2723	2709984.558	-9.2
654243.5677	2709535.859	-10.2
655858.1725	2712289.669	-11.6
654163.6723	2711825.866	-17.9
654452.3696	2709778.86	-11.5
656061.2739	2713290.16	-10.4
656080.4777	2713904.162	-13.8
657188.5513	2714245.467	-7.2
654617.3151	2710757.047	-20.5
658616.4811	2709513.482	-21.5
657838.3394	2713844.96	-7.1
655555.0516	2714573.383	-13.8
655144.8755	2711116.405	-19.3
659384.7127	2710006.847	-21.5
657136.5174	2713918.767	-9.5
656904.2156	2712442.567	-12.8
655559.8904	2711031.7	-20.1
655400.1719	2715042.862	-13.4
656501.2768	2714393.088	-12.5
655004.515	2714255.141	-12.6
655173.8941	2711521.764	-17.5
655897.4953	2714303.549	-13.9
659460.9307	2709668.046	-21.5
656918.7362	2714417.29	-10.6
656668.2556	2713232.709	-12.6
655519.9719	2709854.382	-19.8
658962.4151	2709445.4	-21.5
655605.8698	2710189.547	-20.8
655829.732	2713961.124	-14.1
655269.4979	2710671.119	-21
658897.0749	2709830.178	-21.5
657069.9778	2712165.483	-16.3
655804.3108	2710700.161	-16.6
654964.5725	2710796.963	-20.9
663272.2815	2712238.46	-16.4
655869.8721	2711888.162	-13.4
656054.9754	2711620.068	-15.1
654765.7687	2711595.664	-17.4
654461.1767	2710229.057	-17.8
654959.276	2712256.663	-12.9
654754.374	2710144.757	-16
654960.7766	2709415.759	-11.1
657795.8769	2711791.962	-10.4
655268.573	2711815.262	-15.1
656171.2735	2712302.367	-9.3
654564.8764	2711289.562	-20.2
655868.0773	2711344.463	-17.9
654450.4741	2709925.057	-8.4
654367.1699	2712178.862	-14.8
654060.5688	2710523.763	-15.7
655861.2738	2709796.257	-21
654964.4737	2709812.26	-12
655576.87	2711766.662	-14.5
654066.4733	2710920.763	-20.3
663470.1816	2709970.758	-22
663264.5759	2711886.361	-17.3
654870.2764	2711211.162	-20.1
655371.6691	2712705.465	-9.3
654454.4706	2709336.163	-10.7
656163.8727	2711995.163	-12.3
653776.0717	2713755.268	-7.1
653770.1686	2712508.361	-15
653867.8716	2714230.268	-2
653767.9772	2713253.965	-9.8
655083.2717	2713732.967	-8
653769.2703	2715629.161	-15.9
654975.7749	2713256.964	-4.5
655568.3754	2715573.267	-11.8
655473.5763	2715925.461	-8.3
655979.8718	2715568.168	-10.5
655471.2761	2713273.165	-9.6
655271.8734	2713321.666	-6.9
655766.0682	2713251.967	-8.6
656089.5707	2715298.161	-10.9
655884.3751	2715234.861	-12.4
655875.9707	2715832.168	-9.7
656088.7755	2713019.568	-8.2
655372.8765	2712906.269	-4.7
656274.3779	2716063.361	-8.6
655770.9692	2715573.163	-10.8
655785.269	2713570.659	-11.9
654793.9749	2710477.521	-20.4
656768.6984	2714370.11	-11.8
656765.05	2713714.283	-9.9
657781.4521	2713486.8	-11.7
655794.6347	2710187.124	-20.6
655714.7698	2714988.4	-13.2
655219.8922	2710138.727	-20.3
655378.3904	2715445.788	-9.9
655407.4306	2713708.221	-11.7
657459.5986	2714088.167	-5.6
656357.272	2714721.004	-10.3
655546.596	2710704.998	-20.5
659246.7556	2710005.622	-21.5
658561.0724	2709948.957	-21.5
660480.375	2712887.964	-12.3
661982.0762	2714355.37	-3.2
658459.9711	2710282.561	-21.5
660970.5724	2713287.762	-12
659778.3756	2713150.369	-7.2
659706.377	2713772.664	-0.9
658369.8789	2710733.368	-22
658568.2725	2712098.162	-15.8
658060.2707	2711591.958	-16.4
659755.4709	2712291.768	-3.6
661083.5721	2714606.467	-2.1
660834.1808	2713996.964	-3.4
658370.1732	2712509.063	-14.4
660486.1738	2714385.86	-2.7
658262.0702	2710474.158	-20.9
659958.2769	2712614.762	-13.5
658474.3735	2712598.966	-13
658273.1784	2712325.168	-16.8
657967.6774	2711943.466	-17.8
658169.3734	2710976.661	-20
658566.1769	2711506.163	-20.1
658474.7779	2712826.469	-12.3
658265.8505	2712566.146	-6.9
658459.4744	2709833.367	-21.5
660832.8799	2713716.869	-10.1
659774.6787	2712627.058	-7.4
660683.3776	2714581.563	-1.5
658366.8758	2710582.858	-21.5
658363.1788	2712068.061	-14.3
659755.7765	2712502.162	-3.3
663361.1732	2714293.567	-14.1
660862.4716	2713446.261	-11
658561.4702	2709650.36	-21.5
660775.4731	2713259.568	-10.9
658159.3771	2709776.667	-21
657968.5756	2711335.458	-12.4
660679.5717	2714531.666	-2.3
657961.9755	2709777.166	-17.5
660778.9755	2714095.359	-4.4
658056.2793	2709495.163	-17.7
658169.3789	2712622.065	-14.9
658464.5784	2711179.362	-17.4
660782.7717	2713579.866	-10.3
658165.7729	2711326.858	-18.1
658466.3784	2710481.664	-22
661981.3802	2714206.268	-6.3
659764.1744	2713390.759	-8
658263.2741	2709474.363	-21.5
658363.2788	2710184.367	-21
663373.4719	2714440.069	-13.9
661063.9712	2714260.164	-5.1
658165.0718	2711674.363	-17.6
658177.6699	2712974.769	-9.3
660725.1772	2713858.763	-8.5
658563.7697	2710951.358	-23.5
657859.8741	2710811.668	-16.4
657967.9694	2712645.265	-14.1
659373.7734	2712370.267	-2.4
658360.9736	2709936.168	-21
661060.8724	2713690.261	-5.4
660580.1753	2714272.164	-4.9
660603.6746	2713980.763	-3.6
658055.3776	2710042.559	-17.5
659960.5778	2712809.068	-13.3
661064.3775	2712903.161	-12.2
660853.7717	2713102.466	-12.1
658365.7789	2711431.261	-17.5
657859.679	2710055.168	-16.4
659065.0739	2712503.658	-8.5
658467.9764	2712178.059	-17.3
658263.1725	2711069.358	-19.6
659893.3758	2713321.363	-9
660762.2798	2713904.765	-3.1
658161.2749	2710775.267	-16.8
658164.1746	2712833.16	-7.9
658263.1786	2710074.457	-20.8
663334.3801	2715301.06	-3.3
660471.4754	2713735.468	-8.2
659891.4722	2713879.968	-3.2
659764.8745	2712865.959	-13.6
657968.3779	2711056.367	-9.4
657861.9784	2709563.058	-20.2
660753.7785	2714478.567	-1.4
657863.5783	2710614.363	-18.7
661474.1747	2713704.267	-11.1
661086.7748	2713550.264	-10.5
660475.3732	2713874.666	-5.9
661050.6743	2713841.663	-7.8
658361.8703	2709584.965	-21.5
659924.0748	2713734.562	-5.1
657965.0716	2712348.669	-13.8
660649.8728	2714138.664	-6.6
